-40.487587	-305.888123	-210.180084	0	0	0	1
-40.674591	-134.265228	-90.006310	0	0	0	1
-41.236004	-123.771255	-82.658546	0	0	0	1
-41.912762	-124.512955	-83.181396	0	0	0	1
-42.598877	-125.249298	-83.703568	0	0	0	1
-43.294300	-125.980179	-84.225052	0	0	0	1
-43.998989	-126.705482	-84.745827	0	0	0	1
-44.712887	-127.425087	-85.265854	0	0	0	1
-45.435940	-128.138885	-85.785141	0	0	0	1
-46.168102	-128.846741	-86.303642	0	0	0	1
-46.909313	-129.548569	-86.821350	0	0	0	1
-47.659515	-130.244217	-87.338242	0	0	0	1
-48.418655	-130.933609	-87.854301	0	0	0	1
-49.186665	-131.616608	-88.369492	0	0	0	1
-49.963493	-132.293106	-88.883812	0	0	0	1
-50.749077	-132.962997	-89.397240	0	0	0	1
-51.543346	-133.626160	-89.909744	0	0	0	1
-52.346237	-134.282486	-90.421310	0	0	0.66627604	0.74570519
-53.157684	-134.931870	-90.931923	0	0	0.66627604	0.74570519
-53.977631	-135.574203	-91.441551	0	0	0.66627604	0.74570519
-54.805984	-136.209381	-91.950180	0	0	0.66627604	0.74570519
-55.642696	-136.837280	-92.457794	0	0	0.66627604	0.74570519
-56.487686	-137.457794	-92.964371	0	0	0	1
-57.340874	-138.070847	-93.469879	0	0	0	1
-58.202198	-138.676285	-93.974319	0	0	0	1
-59.071571	-139.274048	-94.477654	0	0	0	1
-59.948925	-139.864014	-94.979874	0	0	0	1
-60.834175	-140.446060	-95.480957	0	0	0	1
-61.727242	-141.020126	-95.980881	0	0	0	1
-62.628044	-141.586075	-96.479622	0	0	0	1
-63.536499	-142.143814	-96.977173	0	0	0	1
-64.452522	-142.693268	-97.473503	0	0	0	1
-65.376038	-143.234299	-97.968590	0	0	0	1
-66.306946	-143.766846	-98.462433	0	0	0	1
-67.245163	-144.290787	-98.954987	0	0	0	1
-68.190605	-144.806046	-99.446251	0	0	0	1
-69.143181	-145.312500	-99.936203	0	0	0	1
-70.102798	-145.810089	-100.424812	0	0	0	1
-71.069359	-146.298706	-100.912086	0	0	0	1
-72.042770	-146.778244	-101.397972	0	0	0	1
-73.022949	-147.248642	-101.882477	0	0	0	1
-74.009781	-147.709793	-102.365555	0	0	0	1
-75.003189	-148.161606	-102.847214	0	0	0	1
-76.003067	-148.604004	-103.327423	0	0	0	1
-77.009308	-149.036896	-103.806160	0	0	0	1
-78.021820	-149.460190	-104.283417	0	0	0	1
-79.040489	-149.873825	-104.759163	0	0	0	1
-80.065231	-150.277679	-105.233391	0	0	0	1
-81.095932	-150.671722	-105.706070	0	0	0	1
-82.132484	-151.055832	-106.177193	0	0	0.58850112	0.8084964
-83.174782	-151.429947	-106.646721	0	0	0.58850112	0.8084964
-84.222733	-151.793976	-107.114670	0	0	0.58850112	0.8084964
-85.276215	-152.147858	-107.580986	0	0	0.58850112	0.8084964
-86.335114	-152.491516	-108.045677	0	0	0	1
-87.399338	-152.824875	-108.508698	0	0	0	1
-88.468765	-153.147858	-108.970070	0	0	0	1
-89.543282	-153.460388	-109.429726	0	0	0	1
-90.622780	-153.762421	-109.887688	0	0	0	1
-91.707146	-154.053848	-110.343925	0	0	0	1
-92.796265	-154.334625	-110.798409	0	0	0	1
-93.890022	-154.604691	-111.251137	0	0	0	1
-94.988297	-154.863968	-111.702087	0	0	0	1
-96.090973	-155.112396	-112.151222	0	0	0	1
-97.197937	-155.349915	-112.598557	0	0	0	1
-98.309059	-155.576477	-113.044052	0	0	0	1
-99.424232	-155.791992	-113.487694	0	0	0	1
-100.543335	-155.996414	-113.929474	0	0	0	1
-101.666245	-156.189697	-114.369354	0	0	0	1
-102.792831	-156.371796	-114.807343	0	0	0	1
-103.922981	-156.542618	-115.243401	0	0	0	1
-105.056564	-156.702148	-115.677521	0	0	0	1
-106.193466	-156.850311	-116.109695	0	0	0	1
-107.333549	-156.987061	-116.539894	0	0	0	1
-108.476700	-157.112366	-116.968102	0	0	0	1
-109.622787	-157.226166	-117.394302	0	0	0	1
-110.771690	-157.328415	-117.818474	0	0	0	1
-111.923271	-157.419067	-118.240616	0	0	0	1
-113.077400	-157.498108	-118.660690	0	0	0	1
-114.233963	-157.565460	-119.078705	0	0	0	1
-115.392815	-157.621094	-119.494621	0	0	0	1
-116.553841	-157.664978	-119.908424	0	0	0	1
-117.716904	-157.697083	-120.320122	0	0	0.50484609	0.86320938
-118.881866	-157.717361	-120.729668	0	0	0.50484609	0.86320938
-120.048615	-157.725784	-121.137062	0	0	0.50484609	0.86320938
-121.216988	-157.722321	-121.542282	0	0	0	1
-122.386887	-157.706940	-121.945328	0	0	0	1
-123.558167	-157.679626	-122.346153	0	0	0	1
-124.730682	-157.640320	-122.744774	0	0	0	1
-125.904320	-157.589035	-123.141151	0	0	0	1
-127.078934	-157.525726	-123.535286	0	0	0	1
-128.254395	-157.450363	-123.927155	0	0	0	1
-129.430557	-157.362946	-124.316734	0	0	0	1
-130.607300	-157.263443	-124.704018	0	0	0	1
-131.784485	-157.151840	-125.088997	0	0	0	1
-132.961975	-157.028122	-125.471649	0	0	0	1
-134.139633	-156.892273	-125.851952	0	0	0	1
-135.317337	-156.744278	-126.229904	0	0	0	1
-136.494919	-156.584137	-126.605476	0	0	0	1
-137.672272	-156.411819	-126.978668	0	0	0	1
-138.849258	-156.227341	-127.349457	0	0	0	1
-140.025711	-156.030685	-127.717827	0	0	0	1
-141.201538	-155.821854	-128.083771	0	0	0	1
-142.376572	-155.600815	-128.447266	0	0	0	1
-143.550690	-155.367615	-128.808304	0	0	0	1
-144.723755	-155.122208	-129.166855	0	0	0	1
-145.895599	-154.864624	-129.522934	0	0	0	1
-147.066132	-154.594864	-129.876511	0	0	0	1
-148.235184	-154.312927	-130.227554	0	0	0	1
-149.402634	-154.018829	-130.576080	0	0	0	1
-150.568344	-153.712555	-130.922073	0	0	0	1
-151.732162	-153.394135	-131.265503	0	0	0	1
-152.893982	-153.063583	-131.606354	0	0	0	1
-154.053619	-152.720901	-131.944611	0	0	0	1
-155.210983	-152.366104	-132.280289	0	0	0.41614682	0.90929743
-156.365921	-151.999207	-132.613358	0	0	0.41614682	0.90929743
-157.518280	-151.620255	-132.943787	0	0	0.41614682	0.90929743
-158.667953	-151.229218	-133.271591	0	0	0	1
-159.814758	-150.826172	-133.596741	0	0	0	1
-160.958618	-150.411102	-133.919235	0	0	0	1
-162.099365	-149.984039	-134.239029	0	0	0	1
-163.236862	-149.545029	-134.556168	0	0	0	1
-164.370972	-149.094070	-134.870575	0	0	0	1
-165.501572	-148.631226	-135.182297	0	0	0	1
-166.628510	-148.156494	-135.491272	0	0	0	1
-167.751678	-147.669922	-135.797516	0	0	0	1
-168.870911	-147.171539	-136.101013	0	0	0	1
-169.986099	-146.661392	-136.401749	0	0	0	1
-171.097107	-146.139511	-136.699707	0	0	0	1
-172.203781	-145.605942	-136.994888	0	0	0	1
-173.306000	-145.060715	-137.287262	0	0	0	1
-174.403641	-144.503876	-137.576828	0	0	0	1
-175.496567	-143.935455	-137.863586	0	0	0	1
-176.584656	-143.355530	-138.147507	0	0	0	1
-177.667740	-142.764130	-138.428574	0	0	0	1
-178.745743	-142.161285	-138.706802	0	0	0	1
-179.818481	-141.547073	-138.982147	0	0	0	1
-180.885864	-140.921539	-139.254639	0	0	0	1
-181.947739	-140.284729	-139.524231	0	0	0	1
-183.003998	-139.636703	-139.790924	0	0	0	1
-184.054504	-138.977509	-140.054718	0	0	0	1
-185.099121	-138.307205	-140.315582	0	0	0	1
-186.137741	-137.625870	-140.573532	0	0	0	1
-187.170227	-136.933533	-140.828537	0	0	0	1
-188.196457	-136.230286	-141.080597	0	0	0	1
-189.216293	-135.516174	-141.329697	0	0	0	1
-190.229645	-134.791275	-141.575821	0	0	0.32328956	0.94630009
-191.236359	-134.055649	-141.818985	0	0	0.32328956	0.94630009
-192.236328	-133.309357	-142.059143	0	0	0	1
-193.229416	-132.552475	-142.296310	0	0	0	1
-194.215515	-131.785065	-142.530487	0	0	0	1
-195.194504	-131.007217	-142.761627	0	0	0	1
-196.166275	-130.218994	-142.989746	0	0	0	1
-197.130692	-129.420471	-143.214844	0	0	0	1
-198.087631	-128.611740	-143.436874	0	0	0	1
-199.037003	-127.792854	-143.655869	0	0	0	1
-199.978668	-126.963898	-143.871811	0	0	0	1
-200.912521	-126.124962	-144.084671	0	0	0	1
-201.838470	-125.276123	-144.294464	0	0	0	1
-202.756348	-124.417480	-144.501175	0	0	0	1
-203.666092	-123.549095	-144.704773	0	0	0	1
-204.567581	-122.671051	-144.905289	0	0	0	1
-205.460693	-121.783463	-145.102692	0	0	0	1
-206.345322	-120.886398	-145.296967	0	0	0	1
-207.221359	-119.979950	-145.488129	0	0	0	1
-208.088715	-119.064217	-145.676147	0	0	0	1
-208.947266	-118.139282	-145.861038	0	0	0	1
-209.796906	-117.205254	-146.042770	0	0	0	1
-210.637543	-116.262199	-146.221359	0	0	0	1
-211.469070	-115.310249	-146.396774	0	0	0	1
-212.291382	-114.349480	-146.569031	0	0	0	1
-213.104385	-113.379990	-146.738113	0	0	0	1
-213.907974	-112.401894	-146.904007	0	0	0	1
-214.702042	-111.415276	-147.066711	0	0	0	1
-215.486511	-110.420250	-147.226227	0	0	0	1
-216.261292	-109.416908	-147.382553	0	0	0	1
-217.026260	-108.405365	-147.535645	0	0	0	1
-217.781342	-107.385719	-147.685547	0	0	0	1
-218.526443	-106.358093	-147.832214	0	0	0.22720209	0.97384763
-219.261475	-105.322578	-147.975662	0	0	0	1
-219.986328	-104.279282	-148.115891	0	0	0	1
-220.700958	-103.228325	-148.252869	0	0	0	1
-221.405228	-102.169815	-148.386612	0	0	0	1
-222.099075	-101.103867	-148.517105	0	0	0	1
-222.782425	-100.030579	-148.644333	0	0	0	1
-223.455185	-98.950089	-148.768326	0	0	0	1
-224.117264	-97.862495	-148.889053	0	0	0	1
-224.768585	-96.767914	-149.006500	0	0	0	1
-225.409088	-95.666466	-149.120697	0	0	0	1
-226.038681	-94.558273	-149.231598	0	0	0	1
-226.657272	-93.443451	-149.339233	0	0	0	1
-227.264816	-92.322121	-149.443573	0	0	0	1
-227.861221	-91.194397	-149.544632	0	0	0	1
-228.446411	-90.060402	-149.642395	0	0	0	1
-229.020325	-88.920265	-149.736862	0	0	0	1
-229.582901	-87.774117	-149.828018	0	0	0	1
-230.134048	-86.622055	-149.915894	0	0	0	1
-230.673721	-85.464226	-150.000458	0	0	0	1
-231.201859	-84.300751	-150.081696	0	0	0	1
-231.718369	-83.131752	-150.159622	0	0	0	1
-232.223221	-81.957359	-150.234238	0	0	0	1
-232.716324	-80.777702	-150.305542	0	0	0	1
-233.197632	-79.592911	-150.373520	0	0	0	1
-233.667114	-78.403099	-150.438156	0	0	0	1
-234.124680	-77.208420	-150.499466	0	0	0	1
-234.570282	-76.008987	-150.557465	0	0	0	1
-235.003876	-74.804939	-150.612122	0	0	0	1
-235.425385	-73.596413	-150.663437	0	0	0	1
-235.834793	-72.383530	-150.711426	0	0	0	1
-236.232040	-71.166420	-150.756088	0	0	0.1288445	0.99166481
-236.617081	-69.945236	-150.797379	0	0	0.1288445	0.99166481
-236.989853	-68.720100	-150.835358	0	0	0	1
-237.350342	-67.491142	-150.869965	0	0	0	1
-237.698471	-66.258507	-150.901245	0	0	0	1
-238.034225	-65.022324	-150.929169	0	0	0	1
-238.357559	-63.782734	-150.953751	0	0	0	1
-238.668427	-62.539867	-150.975006	0	0	0	1
-238.966812	-61.293865	-150.992874	0	0	0	1
-239.252655	-60.044865	-151.007416	0	0	0	1
-239.525940	-58.793007	-151.018616	0	0	0	1
-239.786636	-57.538422	-151.026443	0	0	0	1
-240.034714	-56.281258	-151.030930	0	0	0	1
-240.270126	-55.021648	-151.032059	0	0	0	1
-240.322525	-54.741833	-151.028366	0	0	0	1
-240.350540	-54.605766	-151.021103	0	0	0	1
-240.380035	-54.469860	-151.010498	0	0	0	1
-240.410980	-54.334080	-150.996552	0	0	0	1
-240.443420	-54.198387	-150.979248	0	0	0	1
-240.477341	-54.062737	-150.958588	0	0	0	1
-240.512726	-53.927097	-150.934586	0	0	0	1
-240.549622	-53.791428	-150.907227	0	0	0	1
-240.587982	-53.655689	-150.876526	0	0	0	1
-240.627853	-53.519840	-150.842484	0	0	0	1
-240.669205	-53.383842	-150.805099	0	0	0	1
-240.712051	-53.247662	-150.764374	0	0	0	1
-240.756378	-53.111256	-150.720291	0	0	0	1
-240.802200	-52.974586	-150.672897	0	0	0	1
-240.849503	-52.837616	-150.622147	0	0	0	1
-240.898285	-52.700302	-150.568069	0	0	0.1288445	0.99166481
-240.948563	-52.562607	-150.510651	0	0	0.1288445	0.99166481
-241.000320	-52.424496	-150.449905	0	0	0.1288445	0.99166481
-241.053543	-52.285927	-150.385834	0	0	0.1288445	0.99166481
-241.108231	-52.146862	-150.318436	0	0	0.1288445	0.99166481
-241.164398	-52.007259	-150.247726	0	0	0.1288445	0.99166481
-241.222015	-51.867088	-150.173676	0	0	0.1288445	0.99166481
-241.281082	-51.726303	-150.096313	0	0	0.1288445	0.99166481
-241.341583	-51.584866	-150.015656	0	0	0.1288445	0.99166481
-241.403534	-51.442741	-149.931656	0	0	0.1288445	0.99166481
-241.466904	-51.299892	-149.844376	0	0	0.1288445	0.99166481
-241.531693	-51.156277	-149.753769	0	0	0.1288445	0.99166481
-241.597900	-51.011856	-149.659882	0	0	0.1288445	0.99166481
-241.665497	-50.866596	-149.562683	0	0	0.1288445	0.99166481
-241.734482	-50.720459	-149.462189	0	0	0.1288445	0.99166481
-241.804855	-50.573406	-149.358414	0	0	0.1288445	0.99166481
-241.876572	-50.425396	-149.251358	0	0	0.1288445	0.99166481
-241.949661	-50.276398	-149.141006	0	0	0.1288445	0.99166481
-242.024078	-50.126373	-149.027390	0	0	0.1288445	0.99166481
-242.099823	-49.975281	-148.910507	0	0	0.1288445	0.99166481
-242.176880	-49.823090	-148.790329	0	0	0.1288445	0.99166481
-242.255219	-49.669758	-148.666916	0	0	0.1288445	0.99166481
-242.334839	-49.515255	-148.540237	0	0	0.1288445	0.99166481
-242.415726	-49.359539	-148.410309	0	0	0.1288445	0.99166481
-242.497864	-49.202576	-148.277130	0	0	0.1288445	0.99166481
-242.581238	-49.044331	-148.140701	0	0	0.1288445	0.99166481
-242.665817	-48.884769	-148.001038	0	0	0.1288445	0.99166481
-242.751587	-48.723854	-147.858154	0	0	0.1288445	0.99166481
-242.838516	-48.561550	-147.712036	0	0	0.1288445	0.99166481
-242.926620	-48.397823	-147.562698	0	0	0.1288445	0.99166481
-243.015854	-48.232639	-147.410141	0	0	0.1288445	0.99166481
-243.106186	-48.065964	-147.254395	0	0	0.1288445	0.99166481
-243.197632	-47.897762	-147.095428	0	0	0.1288445	0.99166481
-243.290131	-47.728004	-146.933273	0	0	0.1288445	0.99166481
-243.383682	-47.556652	-146.767929	0	0	0.1288445	0.99166481
-243.478256	-47.383675	-146.599396	0	0	0.1288445	0.99166481
-243.573837	-47.209038	-146.427689	0	0	0.1288445	0.99166481
-243.670395	-47.032707	-146.252808	0	0	0.1288445	0.99166481
-243.767899	-46.854660	-146.074768	0	0	0.1288445	0.99166481
-243.866333	-46.674854	-145.893570	0	0	0.1288445	0.99166481
-243.965668	-46.493263	-145.709229	0	0	0.1288445	0.99166481
-244.065872	-46.309856	-145.521759	0	0	0.1288445	0.99166481
-244.166931	-46.124599	-145.331131	0	0	0.1288445	0.99166481
-244.268814	-45.937466	-145.137390	0	0	0.22720209	0.97384763
-244.371490	-45.748425	-144.940536	0	0	0.22720209	0.97384763
-244.474945	-45.557442	-144.740555	0	0	0.22720209	0.97384763
-244.579117	-45.364498	-144.537491	0	0	0.22720209	0.97384763
-244.684006	-45.169552	-144.331314	0	0	0.22720209	0.97384763
-244.789566	-44.972584	-144.122055	0	0	0.22720209	0.97384763
-244.895782	-44.773563	-143.909714	0	0	0.22720209	0.97384763
-245.002625	-44.572464	-143.694305	0	0	0.22720209	0.97384763
-245.110031	-44.369259	-143.475845	0	0	0.22720209	0.97384763
-245.218018	-44.163914	-143.254333	0	0	0.22720209	0.97384763
-245.326508	-43.956413	-143.029770	0	0	0.22720209	0.97384763
-245.435501	-43.746723	-142.802170	0	0	0.22720209	0.97384763
-245.544952	-43.534821	-142.571533	0	0	0.22720209	0.97384763
-245.654831	-43.320683	-142.337891	0	0	0.22720209	0.97384763
-245.765091	-43.104282	-142.101242	0	0	0.22720209	0.97384763
-245.875717	-42.885593	-141.861588	0	0	0.22720209	0.97384763
-245.986664	-42.664600	-141.618958	0	0	0.22720209	0.97384763
-246.097885	-42.441273	-141.373337	0	0	0.22720209	0.97384763
-246.209381	-42.215584	-141.124756	0	0	0.22720209	0.97384763
-246.321075	-41.987526	-140.873199	0	0	0.22720209	0.97384763
-246.432968	-41.757061	-140.618698	0	0	0.22720209	0.97384763
-246.544983	-41.524181	-140.361267	0	0	0.22720209	0.97384763
-246.657120	-41.288857	-140.100906	0	0	0.22720209	0.97384763
-246.769318	-41.051071	-139.837616	0	0	0.22720209	0.97384763
-246.881546	-40.810806	-139.571411	0	0	0.22720209	0.97384763
-246.993774	-40.568039	-139.302322	0	0	0.22720209	0.97384763
-247.105957	-40.322750	-139.030319	0	0	0.22720209	0.97384763
-247.218048	-40.074928	-138.755463	0	0	0.22720209	0.97384763
-247.330032	-39.824551	-138.477737	0	0	0.22720209	0.97384763
-247.441833	-39.571598	-138.197159	0	0	0.22720209	0.97384763
-247.553452	-39.316059	-137.913727	0	0	0.22720209	0.97384763
-247.664810	-39.057915	-137.627472	0	0	0.22720209	0.97384763
-247.775894	-38.797150	-137.338379	0	0	0.22720209	0.97384763
-247.886658	-38.533752	-137.046494	0	0	0.22720209	0.97384763
-247.997055	-38.267700	-136.751785	0	0	0.22720209	0.97384763
-248.107040	-37.998989	-136.454315	0	0	0.22720209	0.97384763
-248.216583	-37.727604	-136.154053	0	0	0.22720209	0.97384763
-248.325623	-37.453522	-135.851028	0	0	0.22720209	0.97384763
-248.434143	-37.176746	-135.545258	0	0	0.22720209	0.97384763
-248.542099	-36.897255	-135.236740	0	0	0.22720209	0.97384763
-248.649429	-36.615044	-134.925507	0	0	0.22720209	0.97384763
-248.756088	-36.330097	-134.611557	0	0	0.22720209	0.97384763
-248.862061	-36.042408	-134.294891	0	0	0.22720209	0.97384763
-248.967270	-35.751965	-133.975540	0	0	0.22720209	0.97384763
-249.071701	-35.458767	-133.653519	0	0	0.22720209	0.97384763
-249.175293	-35.162796	-133.328827	0	0	0.22720209	0.97384763
-249.278015	-34.864048	-133.001480	0	0	0.22720209	0.97384763
-249.379807	-34.562519	-132.671494	0	0	0.22720209	0.97384763
-249.480637	-34.258205	-132.338898	0	0	0.22720209	0.97384763
-249.580460	-33.951096	-132.003662	0	0	0.22720209	0.97384763
-249.679214	-33.641186	-131.665833	0	0	0.22720209	0.97384763
-249.776871	-33.328476	-131.325424	0	0	0.22720209	0.97384763
-249.873383	-33.012962	-130.982452	0	0	0.32328956	0.94630009
-249.968704	-32.694633	-130.636902	0	0	0.32328956	0.94630009
-250.062790	-32.373497	-130.288818	0	0	0.32328956	0.94630009
-250.155579	-32.049549	-129.938187	0	0	0.32328956	0.94630009
-250.247055	-31.722786	-129.585052	0	0	0.32328956	0.94630009
-250.337158	-31.393211	-129.229416	0	0	0.32328956	0.94630009
-250.425827	-31.060820	-128.871277	0	0	0.32328956	0.94630009
-250.513046	-30.725618	-128.510666	0	0	0.32328956	0.94630009
-250.598740	-30.387602	-128.147583	0	0	0.32328956	0.94630009
-250.682877	-30.046780	-127.782066	0	0	0.32328956	0.94630009
-250.765411	-29.703152	-127.414116	0	0	0.32328956	0.94630009
-250.846298	-29.356720	-127.043739	0	0	0.32328956	0.94630009
-250.925476	-29.007492	-126.670959	0	0	0.32328956	0.94630009
-251.002930	-28.655468	-126.295792	0	0	0.32328956	0.94630009
-251.078583	-28.300657	-125.918251	0	0	0.32328956	0.94630009
-251.152390	-27.943066	-125.538353	0	0	0.32328956	0.94630009
-251.224319	-27.582701	-125.156105	0	0	0.32328956	0.94630009
-251.294327	-27.219566	-124.771530	0	0	0.32328956	0.94630009
-251.362350	-26.853672	-124.384636	0	0	0.32328956	0.94630009
-251.428345	-26.485025	-123.995445	0	0	0.32328956	0.94630009
-251.492279	-26.113644	-123.603973	0	0	0.32328956	0.94630009
-251.554092	-25.739527	-123.210228	0	0	0.32328956	0.94630009
-251.613739	-25.362692	-122.814232	0	0	0.32328956	0.94630009
-251.671188	-24.983147	-122.416000	0	0	0.32328956	0.94630009
-251.726379	-24.600908	-122.015549	0	0	0.32328956	0.94630009
-251.779266	-24.215984	-121.612892	0	0	0.32328956	0.94630009
-251.829803	-23.828390	-121.208038	0	0	0.32328956	0.94630009
-251.877945	-23.438141	-120.801018	0	0	0.32328956	0.94630009
-251.923645	-23.045250	-120.391838	0	0	0.32328956	0.94630009
-251.966858	-22.649734	-119.980515	0	0	0.32328956	0.94630009
-252.007538	-22.251604	-119.567062	0	0	0.32328956	0.94630009
-252.045639	-21.850885	-119.151512	0	0	0.32328956	0.94630009
-252.081116	-21.447588	-118.733856	0	0	0.32328956	0.94630009
-252.113937	-21.041737	-118.314133	0	0	0.32328956	0.94630009
-252.144028	-20.633343	-117.892349	0	0	0.32328956	0.94630009
-252.171356	-20.222431	-117.468521	0	0	0.32328956	0.94630009
-252.195892	-19.809021	-117.042671	0	0	0.32328956	0.94630009
-252.217575	-19.393127	-116.614799	0	0	0.32328956	0.94630009
-252.236343	-18.974781	-116.184944	0	0	0.32328956	0.94630009
-252.252197	-18.553997	-115.753113	0	0	0.32328956	0.94630009
-252.265045	-18.130798	-115.319321	0	0	0.32328956	0.94630009
-252.274887	-17.705215	-114.883591	0	0	0.32328956	0.94630009
-252.281631	-17.277262	-114.445930	0	0	0.32328956	0.94630009
-252.285278	-16.846966	-114.006371	0	0	0.32328956	0.94630009
-252.285751	-16.414360	-113.564926	0	0	0.32328956	0.94630009
-252.283035	-15.979458	-113.121597	0	0	0.32328956	0.94630009
-252.277069	-15.542295	-112.676422	0	0	0.32328956	0.94630009
-252.267807	-15.102895	-112.229401	0	0	0.32328956	0.94630009
-252.255203	-14.661283	-111.780571	0	0	0.32328956	0.94630009
-252.239243	-14.217496	-111.329933	0	0	0.32328956	0.94630009
-252.219864	-13.771553	-110.877510	0	0	0.32328956	0.94630009
-252.197021	-13.323487	-110.423317	0	0	0.32328956	0.94630009
-252.170670	-12.873334	-109.967392	0	0	0.32328956	0.94630009
-252.140793	-12.421115	-109.509720	0	0	0.32328956	0.94630009
-252.107330	-11.966868	-109.050346	0	0	0.32328956	0.94630009
-252.070236	-11.510623	-108.589272	0	0	0.32328956	0.94630009
-252.029480	-11.052416	-108.126534	0	0	0.32328956	0.94630009
-251.985031	-10.592275	-107.662125	0	0	0.32328956	0.94630009
-251.936829	-10.130235	-107.196083	0	0	0.32328956	0.94630009
-251.884857	-9.666335	-106.728424	0	0	0.32328956	0.94630009
-251.829056	-9.200603	-106.259148	0	0	0.32328956	0.94630009
-251.769394	-8.733081	-105.788307	0	0	0.32328956	0.94630009
-251.705841	-8.263798	-105.315887	0	0	0.32328956	0.94630009
-251.638336	-7.792801	-104.841927	0	0	0.32328956	0.94630009
-251.566879	-7.320117	-104.366440	0	0	0.32328956	0.94630009
-251.491409	-6.845790	-103.889442	0	0	0.32328956	0.94630009
-251.411880	-6.369856	-103.410957	0	0	0.32328956	0.94630009
-251.328278	-5.892353	-102.930992	0	0	0.32328956	0.94630009
-251.240555	-5.413326	-102.449585	0	0	0.32328956	0.94630009
-251.148682	-4.932811	-101.966736	0	0	0.32328956	0.94630009
-251.052612	-4.450852	-101.482483	0	0	0.32328956	0.94630009
-250.952332	-3.967484	-100.996826	0	0	0.32328956	0.94630009
-250.847794	-3.482750	-100.509796	0	0	0.32328956	0.94630009
-250.738953	-2.996701	-100.021416	0	0	0.32328956	0.94630009
-250.625793	-2.509369	-99.531693	0	0	0.32328956	0.94630009
-250.508286	-2.020803	-99.040649	0	0	0.32328956	0.94630009
-250.386383	-1.531045	-98.548309	0	0	0.32328956	0.94630009
-250.260056	-1.040138	-98.054680	0	0	0.32328956	0.94630009
-250.129288	-0.548133	-97.559807	0	0	0.32328956	0.94630009
-249.994034	-0.055066	-97.063683	0	0	0.32328956	0.94630009
-249.854263	0.439005	-96.566345	0	0	0.32328956	0.94630009
-249.709946	0.934048	-96.067802	0	0	0.32328956	0.94630009
-249.561066	1.430005	-95.568077	0	0	0.32328956	0.94630009
-249.407593	1.926831	-95.067192	0	0	0.32328956	0.94630009
-249.249481	2.424484	-94.565170	0	0	0.32328956	0.94630009
-249.086716	2.922909	-94.062019	0	0	0.32328956	0.94630009
-248.919281	3.422062	-93.557770	0	0	0.32328956	0.94630009
-248.747131	3.921892	-93.052437	0	0	0.32328956	0.94630009
-248.570236	4.422350	-92.546043	0	0	0.32328956	0.94630009
-248.388596	4.923379	-92.038605	0	0	0.32328956	0.94630009
-248.202164	5.424944	-91.530144	0	0	0.32328956	0.94630009
-248.010925	5.926982	-91.020683	0	0	0.32328956	0.94630009
-247.814850	6.429445	-90.510239	0	0	0.32328956	0.94630009
-247.613922	6.932276	-89.998833	0	0	0.32328956	0.94630009
-247.408112	7.435436	-89.486488	0	0	0.32328956	0.94630009
-247.197403	7.938861	-88.973221	0	0	0.32328956	0.94630009
-246.981781	8.442504	-88.459045	0	0	0.32328956	0.94630009
-246.761215	8.946310	-87.943993	0	0	0.32328956	0.94630009
-246.535690	9.450226	-87.428085	0	0	0.32328956	0.94630009
-246.305176	9.954194	-86.911331	0	0	0.32328956	0.94630009
-246.069672	10.458168	-86.393761	0	0	0.32328956	0.94630009
-245.829147	10.962083	-85.875389	0	0	0.32328956	0.94630009
-245.583588	11.465893	-85.356239	0	0	0.32328956	0.94630009
-245.332962	11.969542	-84.836327	0	0	0.32328956	0.94630009
-245.077286	12.472966	-84.315681	0	0	0.32328956	0.94630009
-244.816513	12.976121	-83.794319	0	0	0.32328956	0.94630009
-244.550659	13.478939	-83.272255	0	0	0.32328956	0.94630009
-244.279678	13.981374	-82.749519	0	0	0.32328956	0.94630009
-244.003586	14.483360	-82.226128	0	0	0.32328956	0.94630009
-243.722336	14.984844	-81.702103	0	0	0.32328956	0.94630009
-243.435944	15.485771	-81.177452	0	0	0.32328956	0.94630009
-243.144394	15.986083	-80.652222	0	0	0.32328956	0.94630009
-242.847672	16.485716	-80.126411	0	0	0.32328956	0.94630009
-242.545746	16.984619	-79.600052	0	0	0.32328956	0.94630009
-242.238647	17.482727	-79.073166	0	0	0.32328956	0.94630009
-241.926346	17.979988	-78.545761	0	0	0.32328956	0.94630009
-241.608826	18.476339	-78.017868	0	0	0.32328956	0.94630009
-241.286087	18.971724	-77.489510	0	0	0.32328956	0.94630009
-240.958130	19.466078	-76.960701	0	0	0.32328956	0.94630009
-240.624939	19.959351	-76.431465	0	0	0.32328956	0.94630009
-240.286514	20.451471	-75.901825	0	0	0.32328956	0.94630009
-239.942841	20.942387	-75.371796	0	0	0.32328956	0.94630009
-239.593933	21.432037	-74.841408	0	0	0.32328956	0.94630009
-239.239792	21.920359	-74.310669	0	0	0.32328956	0.94630009
-238.880386	22.407297	-73.779617	0	0	0.32328956	0.94630009
-238.515717	22.892786	-73.248260	0	0	0.32328956	0.94630009
-238.145813	23.376768	-72.716621	0	0	0.32328956	0.94630009
-237.770660	23.859177	-72.184723	0	0	0.32328956	0.94630009
-237.390244	24.339962	-71.652588	0	0	0.32328956	0.94630009
-237.004578	24.819048	-71.120232	0	0	0.32328956	0.94630009
-236.613678	25.296389	-70.587677	0	0	0.32328956	0.94630009
-236.217514	25.771912	-70.054955	0	0	0.22720209	0.97384763
-235.816116	26.245564	-69.522072	0	0	0.22720209	0.97384763
-235.409485	26.717281	-68.989067	0	0	0.22720209	0.97384763
-234.997620	27.186996	-68.455933	0	0	0.22720209	0.97384763
-234.580521	27.654659	-67.922722	0	0	0.22720209	0.97384763
-234.158203	28.120197	-67.389435	0	0	0.22720209	0.97384763
-233.730682	28.583551	-66.856102	0	0	0.22720209	0.97384763
-233.297943	29.044666	-66.322739	0	0	0.22720209	0.97384763
-232.860016	29.503471	-65.789360	0	0	0.22720209	0.97384763
-232.416901	29.959911	-65.256004	0	0	0.22720209	0.97384763
-231.968597	30.413923	-64.722679	0	0	0.22720209	0.97384763
-231.515137	30.865446	-64.189415	0	0	0.22720209	0.97384763
-231.056519	31.314415	-63.656227	0	0	0.22720209	0.97384763
-230.592758	31.760777	-63.123138	0	0	0.22720209	0.97384763
-230.123871	32.204456	-62.590164	0	0	0.22720209	0.97384763
-229.649872	32.645405	-62.057335	0	0	0.22720209	0.97384763
-229.170761	33.083549	-61.524662	0	0	0.22720209	0.97384763
-228.686569	33.518837	-60.992176	0	0	0.22720209	0.97384763
-228.197327	33.951206	-60.459892	0	0	0.22720209	0.97384763
-227.703018	34.380592	-59.927830	0	0	0.22720209	0.97384763
-227.203674	34.806934	-59.396015	0	0	0.22720209	0.97384763
-226.699310	35.230171	-58.864468	0	0	0.22720209	0.97384763
-226.189957	35.650246	-58.333206	0	0	0.22720209	0.97384763
-225.675629	36.067097	-57.802258	0	0	0.22720209	0.97384763
-225.156357	36.480659	-57.271637	0	0	0.22720209	0.97384763
-224.632141	36.890873	-56.741364	0	0	0.22720209	0.97384763
-224.103012	37.297680	-56.211460	0	0	0.22720209	0.97384763
-223.568985	37.701019	-55.681953	0	0	0.22720209	0.97384763
-223.030106	38.100830	-55.152851	0	0	0.22720209	0.97384763
-222.486389	38.497055	-54.624195	0	0	0.22720209	0.97384763
-221.937851	38.889629	-54.095982	0	0	0.22720209	0.97384763
-221.384537	39.278500	-53.568253	0	0	0.22720209	0.97384763
-220.826447	39.663609	-53.041019	0	0	0.22720209	0.97384763
-220.263626	40.044884	-52.514297	0	0	0.22720209	0.97384763
-219.696106	40.422279	-51.988121	0	0	0.22720209	0.97384763
-219.123901	40.795731	-51.462502	0	0	0.22720209	0.97384763
-218.547043	41.165180	-50.937458	0	0	0.22720209	0.97384763
-217.965576	41.530571	-50.413017	0	0	0.22720209	0.97384763
-217.379517	41.891846	-49.889194	0	0	0.22720209	0.97384763
-216.788910	42.248943	-49.366016	0	0	0.22720209	0.97384763
-216.193787	42.601814	-48.843502	0	0	0.22720209	0.97384763
-215.594162	42.950386	-48.321667	0	0	0.22720209	0.97384763
-214.990082	43.294617	-47.800537	0	0	0.22720209	0.97384763
-214.381592	43.634449	-47.280136	0	0	0.22720209	0.97384763
-213.768723	43.969818	-46.760468	0	0	0.22720209	0.97384763
-213.151489	44.300674	-46.241577	0	0	0.22720209	0.97384763
-212.529953	44.626961	-45.723469	0	0	0.22720209	0.97384763
-211.904144	44.948624	-45.206165	0	0	0.22720209	0.97384763
-211.274109	45.265602	-44.689690	0	0	0.22720209	0.97384763
-210.639862	45.577850	-44.174057	0	0	0.22720209	0.97384763
-210.001465	45.885307	-43.659290	0	0	0.22720209	0.97384763
-209.358963	46.187923	-43.145416	0	0	0.22720209	0.97384763
-208.712372	46.485645	-42.632450	0	0	0.22720209	0.97384763
-208.061752	46.778419	-42.120411	0	0	0.22720209	0.97384763
-207.407135	47.066189	-41.609322	0	0	0.22720209	0.97384763
-206.748581	47.348911	-41.099201	0	0	0.22720209	0.97384763
-206.086121	47.626522	-40.590065	0	0	0.22720209	0.97384763
-205.419800	47.898983	-40.081944	0	0	0.22720209	0.97384763
-204.749664	48.166237	-39.574848	0	0	0.22720209	0.97384763
-204.075745	48.428234	-39.068806	0	0	0.22720209	0.97384763
-203.398117	48.684917	-38.563824	0	0	0.22720209	0.97384763
-202.716812	48.936249	-38.059933	0	0	0.22720209	0.97384763
-202.031891	49.182175	-37.557152	0	0	0.22720209	0.97384763
-201.343369	49.422649	-37.055500	0	0	0.22720209	0.97384763
-200.651337	49.657619	-36.555000	0	0	0.22720209	0.97384763
-199.955811	49.887043	-36.055672	0	0	0.22720209	0.97384763
-199.256851	50.110870	-35.557522	0	0	0.22720209	0.97384763
-198.554520	50.329052	-35.060585	0	0	0.22720209	0.97384763
-197.848846	50.541546	-34.564869	0	0	0.22720209	0.97384763
-197.139908	50.748299	-34.070400	0	0	0.22720209	0.97384763
-196.427750	50.949284	-33.577206	0	0	0.22720209	0.97384763
-195.712402	51.144436	-33.085285	0	0	0.22720209	0.97384763
-194.993958	51.333721	-32.594677	0	0	0.22720209	0.97384763
-194.272430	51.517097	-32.105392	0	0	0.22720209	0.97384763
-193.547913	51.694519	-31.617451	0	0	0.22720209	0.97384763
-192.820419	51.865952	-31.130882	0	0	0.22720209	0.97384763
-192.090042	52.031338	-30.645681	0	0	0.22720209	0.97384763
-191.356827	52.190651	-30.161892	0	0	0.22720209	0.97384763
-190.620834	52.343842	-29.679518	0	0	0.22720209	0.97384763
-189.882095	52.490871	-29.198580	0	0	0.22720209	0.97384763
-189.140701	52.631702	-28.719105	0	0	0.22720209	0.97384763
-188.396698	52.766304	-28.241108	0	0	0.22720209	0.97384763
-187.650146	52.894627	-27.764606	0	0	0.22720209	0.97384763
-186.901108	53.016636	-27.289621	0	0	0.22720209	0.97384763
-186.149628	53.132301	-26.816174	0	0	0.22720209	0.97384763
-185.395782	53.241577	-26.344267	0	0	0.22720209	0.97384763
-184.639633	53.344437	-25.873943	0	0	0.22720209	0.97384763
-183.881226	53.440838	-25.405201	0	0	0.22720209	0.97384763
-183.120651	53.530750	-24.938072	0	0	0.22720209	0.97384763
-182.357941	53.614140	-24.472570	0	0	0.22720209	0.97384763
-181.593170	53.690975	-24.008711	0	0	0.22720209	0.97384763
-180.826416	53.761219	-23.546511	0	0	0.22720209	0.97384763
-180.057724	53.824848	-23.086004	0	0	0.22720209	0.97384763
-179.287170	53.881824	-22.627186	0	0	0.22720209	0.97384763
-178.514801	53.932121	-22.170092	0	0	0.22720209	0.97384763
-177.740707	53.975708	-21.714733	0	0	0.22720209	0.97384763
-176.964935	54.012558	-21.261131	0	0	0.22720209	0.97384763
-176.187561	54.042641	-20.809292	0	0	0.22720209	0.97384763
-175.408646	54.065933	-20.359255	0	0	0.22720209	0.97384763
-174.628265	54.082397	-19.911013	0	0	0.22720209	0.97384763
-173.846466	54.092026	-19.464607	0	0	0.22720209	0.97384763
-173.063339	54.094776	-19.020033	0	0	0.22720209	0.97384763
-172.278946	54.090633	-18.577326	0	0	0.22720209	0.97384763
-171.493347	54.079578	-18.136501	0	0	0.22720209	0.97384763
-170.706604	54.061573	-17.697561	0	0	0.22720209	0.97384763
-169.918823	54.036606	-17.260542	0	0	0.22720209	0.97384763
-169.130020	54.004654	-16.825449	0	0	0.22720209	0.97384763
-168.340302	53.965694	-16.392300	0	0	0.22720209	0.97384763
-167.549744	53.919716	-15.961122	0	0	0.22720209	0.97384763
-166.758377	53.866688	-15.531923	0	0	0.22720209	0.97384763
-165.966309	53.806595	-15.104717	0	0	0.22720209	0.97384763
-165.173599	53.739422	-14.679535	0	0	0.22720209	0.97384763
-164.380325	53.665154	-14.256377	0	0	0.22720209	0.97384763
-163.586533	53.583771	-13.835272	0	0	0.1288445	0.99166481
-162.792313	53.495258	-13.416224	0	0	0.1288445	0.99166481
-161.997742	53.399609	-12.999271	0	0	0.1288445	0.99166481
-161.202881	53.296795	-12.584408	0	0	0.1288445	0.99166481
-160.407806	53.186813	-12.171656	0	0	0.1288445	0.99166481
-159.612579	53.069656	-11.761042	0	0	0.1288445	0.99166481
-158.817307	52.945301	-11.352571	0	0	0.1288445	0.99166481
-158.022018	52.813744	-10.946263	0	0	0.1288445	0.99166481
-157.039764	52.991276	-10.799446	0	0	0.1288445	0.99166481
-155.945343	53.339809	-10.802278	0	0	0.1288445	0.99166481
-154.846634	53.674557	-10.805040	0	0	0.1288445	0.99166481
-153.743820	53.995491	-10.807746	0	0	0.1288445	0.99166481
-152.637024	54.302536	-10.810376	0	0	0.1288445	0.99166481
-151.526474	54.595661	-10.812950	0	0	0.1288445	0.99166481
-150.412323	54.874809	-10.815454	0	0	0.1288445	0.99166481
-149.294739	55.139946	-10.817901	0	0	0.1288445	0.99166481
-148.173904	55.391026	-10.820282	0	0	0.1288445	0.99166481
-147.050018	55.627998	-10.822589	0	0	0.1288445	0.99166481
-145.923233	55.850845	-10.824844	0	0	0.1288445	0.99166481
-144.793716	56.059517	-10.827029	0	0	0.1288445	0.99166481
-143.661682	56.253979	-10.829146	0	0	0.1288445	0.99166481
-142.527283	56.434216	-10.831203	0	0	0.1288445	0.99166481
-141.390701	56.600189	-10.833199	0	0	0.1288445	0.99166481
-140.252121	56.751873	-10.835124	0	0	0.1288445	0.99166481
-139.111710	56.889236	-10.836983	0	0	0.1288445	0.99166481
-137.969681	57.012260	-10.838770	0	0	0.1288445	0.99166481
-136.826172	57.120941	-10.840505	0	0	0.1288445	0.99166481
-135.681381	57.215240	-10.842166	0	0	0.1288445	0.99166481
-134.535507	57.295162	-10.843768	0	0	0.1288445	0.99166481
-133.388702	57.360680	-10.845304	0	0	0.1288445	0.99166481
-132.241180	57.411785	-10.846767	0	0	0.1288445	0.99166481
-131.093079	57.448475	-10.848172	0	0	0.1288445	0.99166481
-129.944611	57.470737	-10.849506	0	0	0.1288445	0.99166481
-128.795959	57.478577	-10.850778	0	0	0.1288445	0.99166481
-127.647278	57.471985	-10.851987	0	0	0.1288445	0.99166481
-126.498779	57.450966	-10.853127	0	0	0.1288445	0.99166481
-125.350616	57.415524	-10.854202	0	0	0.1288445	0.99166481
-124.202995	57.365658	-10.855208	0	0	0.029199523	0.9995736
-123.056084	57.301376	-10.856148	0	0	0.029199523	0.9995736
-121.910065	57.222702	-10.857027	0	0	0.029199523	0.9995736
-120.765114	57.129639	-10.857841	0	0	0.029199523	0.9995736
-119.621429	57.022190	-10.858583	0	0	0.029199523	0.9995736
-118.479179	56.900391	-10.859260	0	0	0.029199523	0.9995736
-117.338539	56.764256	-10.859875	0	0	0.029199523	0.9995736
-116.199699	56.613796	-10.860418	0	0	0.029199523	0.9995736
-115.062836	56.449047	-10.860899	0	0	0.029199523	0.9995736
-113.928116	56.270031	-10.861313	0	0	0.029199523	0.9995736
-112.795753	56.076771	-10.861658	0	0	0.029199523	0.9995736
-111.665878	55.869308	-10.861941	0	0	0.029199523	0.9995736
-110.538696	55.647667	-10.862159	0	0	0.029199523	0.9995736
-109.414406	55.411880	-10.862305	0	0	0.029199523	0.9995736
-108.293144	55.161995	-10.862391	0	0	0.029199523	0.9995736
-107.175110	54.898041	-10.862406	0	0	0.029199523	0.9995736
-106.060471	54.620064	-10.862358	0	0	0.029199523	0.9995736
-104.949409	54.328106	-10.862240	0	0	0.029199523	0.9995736
-103.842110	54.022217	-10.862059	0	0	0.029199523	0.9995736
-102.738724	53.702442	-10.861811	0	0	0.029199523	0.9995736
-101.639442	53.368828	-10.861495	0	0	0.029199523	0.9995736
-100.544426	53.021442	-10.861121	0	0	0.029199523	0.9995736
-99.453873	52.660316	-10.860672	0	0	0.029199523	0.9995736
-98.367928	52.285526	-10.860157	0	0	0.029199523	0.9995736
-97.286766	51.897121	-10.859583	0	0	0.029199523	0.9995736
-96.210579	51.495171	-10.858937	0	0	0.029199523	0.9995736
-95.139511	51.079731	-10.858231	0	0	0.029199523	0.9995736
-94.073746	50.650867	-10.857453	0	0	0.029199523	0.9995736
-93.013458	50.208652	-10.856610	0	0	0.029199523	0.9995736
-91.958794	49.753151	-10.855700	0	0	0.029199523	0.9995736
-90.909935	49.284439	-10.854725	0	0	0.029199523	0.9995736
-89.867043	48.802586	-10.853682	0	0	-0.070737201	0.99749499
-88.830276	48.307674	-10.852582	0	0	-0.070737201	0.99749499
-87.799812	47.799774	-10.851402	0	0	-0.070737201	0.99749499
-86.775795	47.278973	-10.850170	0	0	-0.070737201	0.99749499
-85.758408	46.745346	-10.848866	0	0	-0.070737201	0.99749499
-84.747803	46.198978	-10.847489	0	0	-0.070737201	0.99749499
-84.129326	46.271206	-10.884411	0	0	-0.070737201	0.99749499
-82.570305	45.768406	-11.228979	0	0	0	1
-81.022026	45.224651	-11.562426	0	0	-0.070737201	0.99749499
-79.485725	44.640392	-11.884483	0	0	-0.070737201	0.99749499
-79.343826	46.085579	-12.209536	0	0	0	1
-94.626564	71.328865	-12.833405	0	0	0	1
-129.619873	129.129120	-14.261894	0	0	-0.070737201	0.99749499
-291.654846	396.770721	-20.876451	0	0	0	1
136.884	14.372	-13.9974	0.0	0.0	0.999999999999	1.32679489668e-06	
