-57.051414	61.800289	-47.985630	0	0	0	1
-56.587162	62.533211	-48.501778	0	0	0	1
-56.113617	63.263546	-49.018356	0	0	0	1
-55.630798	63.991169	-49.535343	0	0	0	1
-55.138721	64.715958	-50.052700	0	0	0	1
-54.637394	65.437805	-50.570435	0	0	0	1
-54.126846	66.156593	-51.088505	0	0	0	1
-53.607082	66.872200	-51.606895	0	0	0	1
-53.078129	67.584503	-52.125591	0	0	0	1
-57.371902	69.625023	-53.464497	0	0	0	1
-52.540009	68.293404	-52.644562	0	0	0	1
-51.992748	68.998764	-53.163792	0	0	0	1
-51.436363	69.700485	-53.683270	0	0	0	1
-50.870884	70.398438	-54.202965	0	0	0	1
-50.296333	71.092514	-54.722858	0	0	0	1
-49.712749	71.782593	-55.242928	0	0	0	1
-49.120155	72.468567	-55.763161	0	0	0	1
-48.518589	73.150314	-56.283524	0	0	0	1
-47.908073	73.827721	-56.804008	0	0	0	1
-47.288651	74.500664	-57.324589	0	0	0	1
-46.660358	75.169044	-57.845249	0	0	0	1
-46.023232	75.832741	-58.365952	0	0	0	1
-45.377304	76.491638	-58.886696	0	0	0	1
-44.722626	77.145622	-59.407455	0	0	0	1
-44.059231	77.794586	-59.928211	0	0	0	1
-43.387169	78.438416	-60.448936	0	0	-0.76484218	0.64421769
-42.706482	79.076988	-60.969620	0	0	-0.76484218	0.64421769
-42.017216	79.710205	-61.490231	0	0	-0.76484218	0.64421769
-41.319416	80.337944	-62.010750	0	0	0	1
-40.613140	80.960106	-62.531162	0	0	0	1
-39.898426	81.576576	-63.051437	0	0	0	1
-39.175335	82.187241	-63.571575	0	0	0	1
-38.443920	82.791992	-64.091530	0	0	0	1
-37.704231	83.390724	-64.611298	0	0	0	1
-36.956326	83.983330	-65.130859	0	0	0	1
-36.200268	84.569695	-65.650177	0	0	0	1
-35.436104	85.149719	-66.169258	0	0	0	1
-34.663902	85.723289	-66.688057	0	0	0	1
-33.883728	86.290314	-67.206558	0	0	0	1
-33.095642	86.850670	-67.724747	0	0	0	1
-32.299702	87.404259	-68.242599	0	0	0	1
-31.495970	87.950989	-68.760101	0	0	0	1
-30.684532	88.490738	-69.277222	0	0	0	1
-29.865440	89.023422	-69.793953	0	0	0	1
-29.038765	89.548927	-70.310265	0	0	0	1
-28.204584	90.067162	-70.826141	0	0	0	1
-27.362967	90.578018	-71.341560	0	0	0	1
-26.513988	91.081398	-71.856499	0	0	0	1
-25.657724	91.577202	-72.370934	0	0	0	1
-24.794243	92.065338	-72.884865	0	0	0	1
-23.923630	92.545708	-73.398247	0	0	0	1
-23.045963	93.018211	-73.911072	0	0	0	1
-22.161318	93.482758	-74.423309	0	0	0	1
-21.269772	93.939262	-74.934967	0	0	0	1
-20.371422	94.387604	-75.445992	0	0	0	1
-19.466337	94.827721	-75.956375	0	0	0	1
-18.554609	95.259506	-76.466110	0	0	0	1
-17.636320	95.682877	-76.975159	0	0	-0.82533563	0.56464246
-16.711565	96.097733	-77.483498	0	0	0	1
-15.780419	96.503990	-77.991135	0	0	0	1
-14.842984	96.901573	-78.498016	0	0	0	1
-13.899341	97.290375	-79.004150	0	0	0	1
-12.949590	97.670326	-79.509491	0	0	0	1
-11.993820	98.041336	-80.014038	0	0	0	1
-11.032121	98.403320	-80.517769	0	0	0	1
-10.064590	98.756203	-81.020653	0	0	0	1
-9.091327	99.099892	-81.522682	0	0	0	1
-8.112429	99.434319	-82.023827	0	0	0	1
-7.127987	99.759399	-82.524078	0	0	0	1
-57.376781	121.360382	-89.692307	0	0	0	1
-6.138103	100.075050	-83.023407	0	0	0	1
-5.142886	100.381210	-83.521797	0	0	0	1
-4.142429	100.677788	-84.019234	0	0	0	1
-3.136831	100.964714	-84.515686	0	0	0	1
-2.126197	101.241920	-85.011139	0	0	0	1
-1.110638	101.509331	-85.505577	0	0	0	1
-0.090257	101.766876	-85.998978	0	0	0	1
0.934847	102.014481	-86.491325	0	0	0	1
1.964557	102.252083	-86.982597	0	0	0	1
2.998773	102.479614	-87.472771	0	0	0	1
4.037387	102.697006	-87.961830	0	0	0	1
5.080277	102.904198	-88.449753	0	0	0	1
6.127347	103.101128	-88.936531	0	0	0	1
7.178474	103.287720	-89.422127	0	0	0	1
8.233562	103.463936	-89.906540	0	0	0	1
9.292479	103.629700	-90.389740	0	0	0	1
10.355124	103.784950	-90.871712	0	0	0	1
11.421375	103.929649	-91.352432	0	0	0	1
12.491115	104.063721	-91.831886	0	0	0	1
13.564246	104.187126	-92.310051	0	0	0	1
14.640625	104.299797	-92.786911	0	0	0	1
15.720144	104.401703	-93.262451	0	0	0	1
16.802702	104.492775	-93.736649	0	0	0	1
17.888155	104.572975	-94.209473	0	0	0	1
18.976395	104.642250	-94.680923	0	0	0	1
20.067303	104.700554	-95.150978	0	0	0	1
21.160740	104.747849	-95.619614	0	0	0	1
22.256617	104.784081	-96.086815	0	0	0	1
23.354792	104.809227	-96.552559	0	0	0	1
24.455135	104.823227	-97.016830	0	0	0	1
25.557535	104.826050	-97.479599	0	0	0	1
26.661873	104.817657	-97.940880	0	0	0	1
27.768003	104.798019	-98.400620	0	0	0	1
28.875826	104.767090	-98.858818	0	0	0	1
29.985195	104.724846	-99.315453	0	0	0	1
31.095995	104.671257	-99.770500	0	0	0	1
32.208088	104.606285	-100.223946	0	0	0	1
33.321369	104.529907	-100.675781	0	0	0	1
34.435699	104.442093	-101.125984	0	0	0	1
8.226742	-110.343971	-1.351621	0	0	0.99913515	0.041580682
35.550938	104.342827	-101.574524	0	0	0	1
9.310811	-110.595161	-1.351616	0	0	0.99913515	0.041580682
10.397950	-110.832710	-1.351612	0	0	0.99913515	0.041580682
36.666977	104.232063	-102.021400	0	0	0	1
11.487985	-111.056580	-1.351621	0	0	0.99913515	0.041580682
37.783672	104.109810	-102.466576	0	0	0	1
12.580748	-111.266739	-1.351622	0	0	0.99913515	0.041580682
38.900902	103.976013	-102.910057	0	0	0	1
13.676064	-111.463142	-1.351622	0	0	0.99913515	0.041580682
40.018547	103.830681	-103.351807	0	0	0	1
14.773766	-111.645767	-1.351622	0	0	0.99913515	0.041580682
10.509228	-114.896782	-1.351622	0	0	0.99913515	0.041580682
15.873673	-111.814583	-1.351617	0	0	0.99913515	0.041580682
41.136452	103.673782	-103.791817	0	0	0	1
16.975618	-111.969566	-1.351618	0	0	0.99913515	0.041580682
42.254517	103.505302	-104.230080	0	0	0	1
18.079418	-112.110687	-1.351618	0	0	0.99913515	0.041580682
43.372589	103.325218	-104.666550	0	0	0	1
19.184908	-112.237938	-1.351620	0	0	0.99913515	0.041580682
44.490555	103.133537	-105.101234	0	0	0	1
20.291903	-112.351280	-1.351624	0	0	0.99913515	0.041580682
21.255293	-112.570610	-1.483345	0	0	0.99913515	0.041580682
45.608269	102.930229	-105.534111	0	0	0	1
21.955132	-113.000893	-1.858266	0	0	0.99913515	0.041580682
46.725609	102.715294	-105.965157	0	0	0	1
22.657818	-113.424477	-2.235465	0	0	0.99913515	0.041580682
47.842438	102.488716	-106.394356	0	0	-0.92106097	0.38941839
23.363285	-113.841339	-2.614937	0	0	0.99913515	0.041580682
48.958626	102.250488	-106.821693	0	0	0	1
24.071445	-114.251465	-2.996660	0	0	0.99913515	0.041580682
24.782244	-114.654831	-3.380619	0	0	0.99913515	0.041580682
50.074043	102.000618	-107.247154	0	0	0	1
25.495596	-115.051422	-3.766801	0	0	0.99913515	0.041580682
51.188564	101.739082	-107.670723	0	0	0	1
26.211439	-115.441223	-4.155193	0	0	0.99913515	0.041580682
52.302048	101.465897	-108.092377	0	0	0	1
26.929701	-115.824226	-4.545774	0	0	0.99913515	0.041580682
27.650305	-116.200394	-4.938529	0	0	0.99913515	0.041580682
53.414360	101.181046	-108.512100	0	0	0	1
28.373188	-116.569740	-5.333446	0	0	0.99913515	0.041580682
54.525387	100.884537	-108.929878	0	0	0	1
29.098267	-116.932236	-5.730508	0	0	0.99913515	0.041580682
55.634972	100.576370	-109.345703	0	0	0	1
29.825478	-117.287872	-6.129697	0	0	0.99913515	0.041580682
30.554747	-117.636642	-6.531008	0	0	0.99913515	0.041580682
56.743004	100.256554	-109.759537	0	0	0	1
31.285997	-117.978523	-6.934409	0	0	0.99913515	0.041580682
57.849342	99.925095	-110.171387	0	0	0	1
32.019165	-118.313515	-7.339893	0	0	0.99913515	0.041580682
58.953846	99.581993	-110.581230	0	0	0	1
32.754173	-118.641609	-7.747445	0	0	0.99913515	0.041580682
33.490948	-118.962791	-8.157045	0	0	0.99913515	0.041580682
60.056408	99.227249	-110.989037	0	0	0	1
34.229424	-119.277061	-8.568680	0	0	0.99913515	0.041580682
61.156864	98.860893	-111.394798	0	0	0	1
34.969524	-119.584412	-8.982333	0	0	0.99913515	0.041580682
62.255112	98.482925	-111.798515	0	0	0	1
20.003799	-130.031372	-1.351619	0	0	0.99913515	0.041580682
35.711174	-119.884834	-9.397985	0	0	0.99913515	0.041580682
36.454308	-120.178322	-9.815624	0	0	0.99913515	0.041580682
63.350990	98.093369	-112.200142	0	0	0	1
37.198845	-120.464874	-10.235229	0	0	0.99913515	0.041580682
64.444389	97.692223	-112.599686	0	0	0	1
37.944729	-120.744484	-10.656788	0	0	0.99913515	0.041580682
65.535172	97.279510	-112.997124	0	0	0	1
38.691875	-121.017159	-11.080278	0	0	0.99913515	0.041580682
39.440208	-121.282883	-11.505687	0	0	0.99913515	0.041580682
66.623199	96.855255	-113.392433	0	0	0	1
40.189667	-121.541664	-11.933002	0	0	0.99913515	0.041580682
67.708351	96.419472	-113.785606	0	0	0	1
40.940174	-121.793495	-12.362195	0	0	0.99913515	0.041580682
68.790489	95.972183	-114.176628	0	0	0	1
41.691662	-122.038391	-12.793261	0	0	0.99913515	0.041580682
42.444050	-122.276344	-13.226175	0	0	0.99913515	0.041580682
69.869484	95.513412	-114.565483	0	0	0	1
43.197277	-122.507355	-13.660919	0	0	0.99913515	0.041580682
70.945206	95.043175	-114.952156	0	0	0	1
43.951267	-122.731422	-14.097484	0	0	0.99913515	0.041580682
72.017509	94.561516	-115.336624	0	0	0	1
44.705944	-122.948570	-14.535848	0	0	0.99913515	0.041580682
45.461250	-123.158783	-14.975991	0	0	0.99913515	0.041580682
73.086288	94.068443	-115.718880	0	0	0	1
46.217102	-123.362068	-15.417903	0	0	0.99913515	0.041580682
74.151390	93.563995	-116.098907	0	0	0	1
46.973438	-123.558441	-15.861558	0	0	0.99913515	0.041580682
75.212708	93.048195	-116.476692	0	0	0	1
47.730179	-123.747910	-16.306944	0	0	0.99913515	0.041580682
48.487263	-123.930473	-16.754044	0	0	0.99913515	0.041580682
76.270096	92.521088	-116.852211	0	0	0	1
49.244610	-124.106148	-17.202833	0	0	0.99913515	0.041580682
77.323433	91.982689	-117.225464	0	0	0	1
50.002159	-124.274933	-17.653303	0	0	0.99913515	0.041580682
78.372574	91.433060	-117.596420	0	0	0	1
50.759838	-124.436852	-18.105431	0	0	0.99913515	0.041580682
51.517574	-124.591904	-18.559200	0	0	0.99913515	0.041580682
79.417404	90.872215	-117.965073	0	0	0	1
52.275299	-124.740112	-19.014589	0	0	0.99913515	0.041580682
80.457794	90.300194	-118.331406	0	0	0	1
53.032940	-124.881477	-19.471584	0	0	0.99913515	0.041580682
53.790436	-125.016022	-19.930164	0	0	0.99913515	0.041580682
81.493622	89.717049	-118.695412	0	0	-0.95533648	0.29552023
54.547722	-125.143753	-20.390322	0	0	0.99913515	0.041580682
82.524734	89.122810	-119.057068	0	0	-0.95533648	0.29552023
55.304710	-125.264694	-20.852022	0	0	0.99913515	0.041580682
83.551025	88.517525	-119.416367	0	0	0	1
56.061352	-125.378853	-21.315258	0	0	0.99913515	0.041580682
56.817570	-125.486244	-21.780006	0	0	0.99913515	0.041580682
84.572372	87.901237	-119.773285	0	0	0	1
57.573296	-125.586899	-22.246248	0	0	0.99913515	0.041580682
85.588638	87.273994	-120.127815	0	0	0	1
58.328472	-125.680817	-22.713972	0	0	0.99913515	0.041580682
86.599709	86.635841	-120.479942	0	0	0	1
59.083019	-125.768028	-23.183151	0	0	0.99913515	0.041580682
59.836880	-125.848549	-23.653776	0	0	0.99913515	0.041580682
87.605431	85.986832	-120.829651	0	0	0	1
60.589977	-125.922401	-24.125814	0	0	0.99913515	0.041580682
88.605705	85.327011	-121.176926	0	0	0	1
61.342258	-125.989601	-24.599262	0	0	0.99913515	0.041580682
89.600410	84.656425	-121.521759	0	0	0	1
62.093647	-126.050171	-25.074093	0	0	0.99913515	0.041580682
62.844082	-126.104141	-25.550289	0	0	0.99913515	0.041580682
90.589401	83.975136	-121.864136	0	0	0	1
63.593498	-126.151520	-26.027834	0	0	0.99913515	0.041580682
91.572571	83.283203	-122.204033	0	0	0	1
64.341827	-126.192345	-26.506706	0	0	0.99913515	0.041580682
65.089012	-126.226631	-26.986883	0	0	0.99913515	0.041580682
92.549797	82.580673	-122.541451	0	0	0	1
32.754120	-150.355713	-1.351613	0	0	0.99913515	0.041580682
65.834991	-126.254410	-27.468357	0	0	0.99913515	0.041580682
93.520943	81.867607	-122.876366	0	0	0	1
66.579689	-126.275703	-27.951101	0	0	0.99913515	0.041580682
94.485909	81.144066	-123.208771	0	0	0	1
67.323036	-126.290535	-28.435089	0	0	0.99913515	0.041580682
68.065002	-126.298935	-28.920322	0	0	0.99913515	0.041580682
95.444550	80.410110	-123.538651	0	0	0	1
68.805489	-126.300934	-29.406763	0	0	0.99913515	0.041580682
96.396774	79.665794	-123.865997	0	0	0	1
69.544456	-126.296555	-29.894400	0	0	0.99913515	0.041580682
70.281830	-126.285835	-30.383207	0	0	0.99913515	0.041580682
97.342430	78.911201	-124.190781	0	0	0	1
71.017563	-126.268791	-30.873178	0	0	0.99913515	0.041580682
98.281425	78.146370	-124.513008	0	0	0	1
71.751579	-126.245461	-31.364283	0	0	0.99913515	0.041580682
99.213631	77.371391	-124.832664	0	0	0	1
72.483833	-126.215881	-31.856501	0	0	0.99913515	0.041580682
73.214256	-126.180069	-32.349823	0	0	0.99913515	0.041580682
100.138931	76.586319	-125.149719	0	0	0	1
73.942787	-126.138069	-32.844223	0	0	0.99913515	0.041580682
101.057205	75.791222	-125.464180	0	0	0	1
74.669373	-126.089912	-33.339680	0	0	0.99913515	0.041580682
75.393951	-126.035629	-33.836182	0	0	0.99913515	0.041580682
101.968346	74.986176	-125.776016	0	0	0	1
76.116463	-125.975250	-34.333691	0	0	0.99913515	0.041580682
102.872231	74.171249	-126.085236	0	0	0	1
76.836853	-125.908821	-34.832207	0	0	0.99913515	0.041580682
103.768753	73.346512	-126.391815	0	0	0	1
77.555069	-125.836365	-35.331711	0	0	0.99913515	0.041580682
78.271049	-125.757927	-35.832165	0	0	0.99913515	0.041580682
104.657791	72.512054	-126.695747	0	0	0	1
78.984734	-125.673538	-36.333569	0	0	0.99913515	0.041580682
105.539238	71.667938	-126.997009	0	0	0	1
79.696075	-125.583237	-36.835880	0	0	0.99913515	0.041580682
80.405014	-125.487061	-37.339111	0	0	0.99913515	0.041580682
106.412979	70.814247	-127.295593	0	0	0	1
81.111504	-125.385048	-37.843212	0	0	0.99913515	0.041580682
107.278900	69.951065	-127.591499	0	0	0	1
81.815475	-125.277237	-38.348171	0	0	0.99913515	0.041580682
82.516884	-125.163673	-38.853977	0	0	0.99913515	0.041580682
108.136909	69.078453	-127.884705	0	0	0	1
83.215683	-125.044388	-39.360615	0	0	0.99913515	0.041580682
108.986870	68.196510	-128.175201	0	0	0	1
83.911812	-124.919418	-39.868034	0	0	0.99913515	0.041580682
84.605225	-124.788818	-40.376255	0	0	0.99913515	0.041580682
109.828697	67.305321	-128.462982	0	0	0	1
85.295860	-124.652626	-40.885227	0	0	0.99913515	0.041580682
110.662277	66.404953	-128.748016	0	0	-0.98006658	0.19866933
85.983673	-124.510872	-41.394939	0	0	0.99913515	0.041580682
111.487495	65.495499	-129.030304	0	0	-0.98006658	0.19866933
86.668625	-124.363609	-41.905376	0	0	0.99913515	0.041580682
87.350647	-124.210876	-42.416515	0	0	0.99913515	0.041580682
112.304253	64.577057	-129.309860	0	0	-0.98006658	0.19866933
88.029701	-124.052719	-42.928333	0	0	0.99913515	0.041580682
113.112442	63.649708	-129.586624	0	0	0	1
88.705742	-123.889183	-43.440819	0	0	0.99913515	0.041580682
89.378716	-123.720314	-43.953934	0	0	0.99913515	0.041580682
113.911972	62.713531	-129.860626	0	0	0	1
90.048576	-123.546143	-44.467674	0	0	0.99913515	0.041580682
114.702728	61.768627	-130.131836	0	0	0	1
90.715279	-123.366730	-44.982014	0	0	0.99913515	0.041580682
91.378769	-123.182121	-45.496933	0	0	0.99913515	0.041580682
115.484612	60.815086	-130.400238	0	0	0	1
92.039017	-122.992355	-46.012417	0	0	0.99913515	0.041580682
116.257523	59.853001	-130.665848	0	0	0	1
92.695976	-122.797485	-46.528442	0	0	0.99913515	0.041580682
93.349586	-122.597549	-47.044979	0	0	0.99913515	0.041580682
117.021362	58.882465	-130.928619	0	0	0	1
93.999817	-122.392601	-47.562012	0	0	0.99913515	0.041580682
117.776031	57.903572	-131.188583	0	0	0	1
94.646629	-122.182693	-48.079533	0	0	0.99913515	0.041580682
95.289970	-121.967857	-48.597496	0	0	0.99913515	0.041580682
118.521439	56.916420	-131.445694	0	0	0	1
95.929802	-121.748161	-49.115906	0	0	0.99913515	0.041580682
119.257477	55.921108	-131.699951	0	0	0	1
96.566093	-121.523651	-49.634731	0	0	0.99913515	0.041580682
97.198792	-121.294365	-50.153954	0	0	0.99913515	0.041580682
119.984062	54.917732	-131.951355	0	0	0	1
97.827858	-121.060364	-50.673557	0	0	0.99913515	0.041580682
120.701096	53.906395	-132.199890	0	0	0	1
98.453255	-120.821693	-51.193501	0	0	0.99913515	0.041580682
99.074959	-120.578407	-51.713799	0	0	0.99913515	0.041580682
121.408485	52.887196	-132.445541	0	0	0	1
99.692909	-120.330544	-52.234398	0	0	0.99913515	0.041580682
122.106140	51.860241	-132.688293	0	0	0	1
100.307083	-120.078171	-52.755291	0	0	0.99913515	0.041580682
100.917442	-119.821335	-53.276459	0	0	0.99913515	0.041580682
122.793976	50.825619	-132.928162	0	0	0	1
101.523949	-119.560081	-53.797878	0	0	0.99913515	0.041580682
123.471893	49.783459	-133.165115	0	0	0	1
102.126572	-119.294472	-54.319527	0	0	0.99913515	0.041580682
102.725273	-119.024559	-54.841389	0	0	0.99913515	0.041580682
124.139801	48.733845	-133.399155	0	0	0	1
103.320023	-118.750389	-55.363441	0	0	0.99913515	0.041580682
124.797638	47.676888	-133.630249	0	0	0	1
103.910782	-118.472015	-55.885666	0	0	0.99913515	0.041580682
104.497528	-118.189491	-56.408047	0	0	0.99913515	0.041580682
125.445290	46.612705	-133.858414	0	0	0	1
105.080223	-117.902878	-56.930546	0	0	0.99913515	0.041580682
126.082687	45.541393	-134.083633	0	0	0	1
105.658836	-117.612221	-57.453156	0	0	0.99913515	0.041580682
106.233337	-117.317581	-57.975849	0	0	0.99913515	0.041580682
126.709740	44.463070	-134.305908	0	0	0	1
106.803703	-117.019012	-58.498615	0	0	0.99913515	0.041580682
107.369896	-116.716560	-59.021423	0	0	0.99913515	0.041580682
127.326370	43.377846	-134.525223	0	0	0	1
107.931900	-116.410286	-59.544262	0	0	0.99913515	0.041580682
127.932503	42.285824	-134.741562	0	0	0	1
108.489677	-116.100250	-60.067101	0	0	0.99913515	0.041580682
109.043205	-115.786507	-60.589924	0	0	0.99913515	0.041580682
128.528046	41.187122	-134.954910	0	0	0	1
109.592461	-115.469101	-61.112713	0	0	0.99913515	0.041580682
129.112930	40.081860	-135.165268	0	0	0	1
110.137413	-115.148094	-61.635452	0	0	0.99913515	0.041580682
110.678040	-114.823547	-62.158104	0	0	0.99913515	0.041580682
129.687088	38.970142	-135.372650	0	0	0	1
111.214325	-114.495514	-62.680660	0	0	0.99913515	0.041580682
130.250427	37.852089	-135.576996	0	0	0	1
111.746231	-114.164047	-63.203098	0	0	0.99913515	0.041580682
112.273750	-113.829201	-63.725395	0	0	0.99913515	0.041580682
130.802887	36.727814	-135.778351	0	0	0	1
112.796852	-113.491043	-64.247528	0	0	0.99913515	0.041580682
113.315521	-113.149620	-64.769493	0	0	0.99913515	0.041580682
131.344376	35.597439	-135.976669	0	0	0	1
113.829727	-112.804993	-65.291245	0	0	0.99913515	0.041580682
131.874847	34.461075	-136.171967	0	0	-0.99500417	0.099833397
114.339470	-112.457214	-65.812775	0	0	0.99913515	0.041580682
114.844711	-112.106354	-66.334068	0	0	0.99913515	0.041580682
132.394211	33.318844	-136.364243	0	0	-0.99500417	0.099833397
115.345444	-111.752449	-66.855095	0	0	0.99913515	0.041580682
132.902420	32.170868	-136.553436	0	0	-0.99500417	0.099833397
115.841652	-111.395569	-67.375839	0	0	0.99913515	0.041580682
116.333313	-111.035774	-67.896278	0	0	0.99913515	0.041580682
133.399384	31.017263	-136.739609	0	0	-0.99500417	0.099833397
116.820412	-110.673119	-68.416397	0	0	0.99913515	0.041580682
117.302940	-110.307655	-68.936165	0	0	0.99913515	0.041580682
133.885056	29.858158	-136.922714	0	0	0	1
50.783043	-179.094315	-1.351623	0	0	0.99913515	0.041580682
117.780876	-109.939445	-69.455566	0	0	0.99913515	0.041580682
134.359344	28.693666	-137.102753	0	0	0	1
118.254211	-109.568550	-69.974586	0	0	0.99913515	0.041580682
118.722931	-109.195015	-70.493195	0	0	0.99913515	0.041580682
134.822220	27.523918	-137.279709	0	0	0	1
119.187019	-108.818909	-71.011375	0	0	0.99913515	0.041580682
119.646469	-108.440292	-71.529114	0	0	0.99913515	0.041580682
135.273621	26.349031	-137.453598	0	0	0	1
120.101273	-108.059212	-72.046387	0	0	0.99913515	0.041580682
135.713455	25.169134	-137.624390	0	0	0	1
120.551414	-107.675728	-72.563156	0	0	0.99913515	0.041580682
120.996895	-107.289909	-73.079430	0	0	0.99913515	0.041580682
136.141678	23.984348	-137.792084	0	0	0	1
121.437691	-106.901794	-73.595169	0	0	0.99913515	0.041580682
121.873802	-106.511459	-74.110359	0	0	0.99913515	0.041580682
136.558243	22.794800	-137.956680	0	0	0	1
122.305222	-106.118950	-74.624985	0	0	0.99913515	0.041580682
122.731949	-105.724327	-75.139008	0	0	0.99913515	0.041580682
136.963089	21.600620	-138.118179	0	0	0	1
123.153969	-105.327644	-75.652428	0	0	0.99913515	0.041580682
137.356171	20.401928	-138.276566	0	0	0	1
123.571281	-104.928970	-76.165215	0	0	0.99913515	0.041580682
123.983879	-104.528351	-76.677353	0	0	0.99913515	0.041580682
137.737411	19.198862	-138.431824	0	0	0	1
124.391762	-104.125854	-77.188820	0	0	0.99913515	0.041580682
124.794922	-103.721519	-77.699593	0	0	0.99913515	0.041580682
138.106781	17.991541	-138.583954	0	0	0	1
125.193367	-103.315422	-78.209656	0	0	0.99913515	0.041580682
138.464218	16.780096	-138.732941	0	0	0	1
125.587082	-102.907616	-78.718979	0	0	0.99913515	0.041580682
125.976082	-102.498146	-79.227562	0	0	0.99913515	0.041580682
138.809677	15.564662	-138.878815	0	0	0	1
126.360352	-102.087082	-79.735367	0	0	0.99913515	0.041580682
126.739906	-101.674477	-80.242386	0	0	0.99913515	0.041580682
139.143127	14.345366	-139.021515	0	0	0	1
127.114731	-101.260376	-80.748581	0	0	0.99913515	0.041580682
127.484848	-100.844856	-81.253952	0	0	0.99913515	0.041580682
139.464493	13.122335	-139.161087	0	0	0	1
127.850243	-100.427956	-81.758469	0	0	0.99913515	0.041580682
128.210922	-100.009735	-82.262108	0	0	0.99913515	0.041580682
139.773743	11.895706	-139.297501	0	0	0	1
128.566895	-99.590263	-82.764870	0	0	0.99913515	0.041580682
140.070862	10.665606	-139.430756	0	0	0	1
128.918167	-99.169579	-83.266708	0	0	0.99913515	0.041580682
129.264740	-98.747742	-83.767624	0	0	0.99913515	0.041580682
140.355759	9.432173	-139.560837	0	0	0	1
129.606628	-98.324806	-84.267578	0	0	0.99913515	0.041580682
129.943817	-97.900833	-84.766563	0	0	0.99913515	0.041580682
140.628433	8.195535	-139.687759	0	0	0	1
130.276337	-97.475876	-85.264557	0	0	0.99913515	0.041580682
130.604187	-97.049988	-85.761551	0	0	0.99913515	0.041580682
140.888840	6.955830	-139.811493	0	0	0	1
130.927383	-96.623215	-86.257500	0	0	0.99913515	0.041580682
131.245926	-96.195625	-86.752403	0	0	0.99913515	0.041580682
141.136932	5.713185	-139.932053	0	0	0	1
131.559814	-95.767265	-87.246239	0	0	0.99913515	0.041580682
131.869080	-95.338188	-87.738991	0	0	0.99913515	0.041580682
141.372696	4.467739	-140.049438	0	0	0	1
132.173737	-94.908447	-88.230637	0	0	0.99913515	0.041580682
132.473770	-94.478096	-88.721146	0	0	0.99913515	0.041580682
141.596069	3.219627	-140.163620	0	0	0	1
132.769226	-94.047195	-89.210518	0	0	0.99913515	0.041580682
141.807053	1.968982	-140.274597	0	0	0	1
133.060089	-93.615784	-89.698715	0	0	0.99913515	0.041580682
133.346390	-93.183922	-90.185722	0	0	0.99913515	0.041580682
142.005585	0.715940	-140.382401	0	0	0	1
133.628143	-92.751656	-90.671532	0	0	0.99913515	0.041580682
133.905365	-92.319046	-91.156113	0	0	0.99913515	0.041580682
142.191666	-0.539363	-140.486969	0	0	0	1
134.178055	-91.886131	-91.639458	0	0	0.99913515	0.041580682
134.446243	-91.452980	-92.121536	0	0	0.99913515	0.041580682
142.365250	-1.796791	-140.588348	0	0	0	1
134.709946	-91.019623	-92.602341	0	0	0.99913515	0.041580682
134.969177	-90.586128	-93.081833	0	0	0.99913515	0.041580682
142.526306	-3.056208	-140.686523	0	0	0	1
135.223953	-90.152527	-93.560020	0	0	0.99913515	0.041580682
135.474289	-89.718887	-94.036858	0	0	0.99913515	0.041580682
142.674835	-4.317478	-140.781479	0	-0	-1	-4.371139e-08
135.720230	-89.285248	-94.512344	0	0	0.99913515	0.041580682
135.961761	-88.851662	-94.986450	0	0	0.99913515	0.041580682
142.810791	-5.580461	-140.873215	0	-0	-1	-4.371139e-08
136.198929	-88.418175	-95.459167	0	0	0.99913515	0.041580682
136.431747	-87.984833	-95.930466	0	0	0.99913515	0.041580682
142.934174	-6.845023	-140.961731	0	-0	-1	-4.371139e-08
136.660217	-87.551689	-96.400345	0	0	0.99913515	0.041580682
136.884399	-87.118782	-96.868759	0	0	0.99913515	0.041580682
143.044952	-8.111024	-141.047012	0	-0	-1	-4.371139e-08
137.104279	-86.686165	-97.335716	0	0	0.99913515	0.041580682
137.319916	-86.253891	-97.801178	0	0	0.99913515	0.041580682
143.143127	-9.378329	-141.129059	0	0	0	1
137.531296	-85.821991	-98.265137	0	0	0.99913515	0.041580682
137.738464	-85.390518	-98.727570	0	0	0.99913515	0.041580682
137.941452	-84.959526	-99.188469	0	0	0.99913515	0.041580682
143.228653	-10.646797	-141.207886	0	0	0	1
138.140274	-84.529045	-99.647797	0	0	0.99913515	0.041580682
138.334946	-84.099129	-100.105553	0	0	0.99913515	0.041580682
143.301544	-11.916292	-141.283463	0	0	0	1
138.525513	-83.669807	-100.561714	0	0	0.99913515	0.041580682
138.712006	-83.241150	-101.016258	0	0	0.99913515	0.041580682
143.361771	-13.186676	-141.355820	0	0	0	1
138.894424	-82.813171	-101.469170	0	0	0.99913515	0.041580682
139.072830	-82.385933	-101.920433	0	0	0.99913515	0.041580682
143.409317	-14.457809	-141.424911	0	0	0	1
139.247223	-81.959473	-102.370026	0	0	0.99913515	0.041580682
139.417633	-81.533821	-102.817932	0	0	0.99913515	0.041580682
143.444199	-15.729553	-141.490784	0	0	0	1
139.584122	-81.109032	-103.264137	0	0	0.99913515	0.041580682
139.746689	-80.685143	-103.708626	0	0	0.99913515	0.041580682
139.905365	-80.262192	-104.151367	0	0	0.99913515	0.041580682
143.466385	-17.001772	-141.553406	0	0	0	1
140.060196	-79.840218	-104.592361	0	0	0.99913515	0.041580682
140.211197	-79.419266	-105.031570	0	0	0.99913515	0.041580682
143.475891	-18.274323	-141.612762	0	0	0	1
140.358414	-78.999367	-105.468994	0	0	0.99913515	0.041580682
140.501862	-78.580559	-105.904610	0	0	0.99913515	0.041580682
143.472687	-19.547066	-141.668869	0	0	0	1
140.641602	-78.162888	-106.338402	0	0	0.99913515	0.041580682
140.777634	-77.746384	-106.770355	0	0	0.99913515	0.041580682
140.910004	-77.331078	-107.200439	0	0	0.99913515	0.041580682
143.456787	-20.819868	-141.721741	0	0	0.99913515	0.041580682
141.038757	-76.917015	-107.628654	0	0	0.99913515	0.041580682
141.163910	-76.504234	-108.054977	0	0	0.99913515	0.041580682
143.428177	-22.092588	-141.771332	0	0	0.99913515	0.041580682
141.285507	-76.092758	-108.479385	0	0	0.99913515	0.041580682
141.403580	-75.682632	-108.901863	0	0	0.99913515	0.041580682
143.386887	-23.365088	-141.817688	0	0	0.99913515	0.041580682
141.518158	-75.273880	-109.322403	0	0	0.99913515	0.041580682
141.629288	-74.866547	-109.740982	0	0	0.99913515	0.041580682
141.737000	-74.460648	-110.157585	0	0	0.99913515	0.041580682
143.332886	-24.637224	-141.860764	0	0	0.99913515	0.041580682
141.841324	-74.056236	-110.572189	0	0	0.99913515	0.041580682
141.942307	-73.653328	-110.984795	0	0	0.99913515	0.041580682
142.039978	-73.251961	-111.395363	0	0	0.99913515	0.041580682
143.266205	-25.908861	-141.900589	0	0	0	1
142.134384	-72.852158	-111.803902	0	0	0.99913515	0.041580682
142.225555	-72.453957	-112.210373	0	0	0.99913515	0.041580682
143.186829	-27.179859	-141.937134	0	0	0	1
142.313522	-72.057381	-112.614769	0	0	0.99913515	0.041580682
142.398331	-71.662468	-113.017082	0	0	0.99913515	0.041580682
142.480026	-71.269234	-113.417274	0	0	0.99913515	0.041580682
143.094772	-28.450083	-141.970444	0	0	0	1
142.558624	-70.877716	-113.815361	0	0	0.99913515	0.041580682
142.634186	-70.487930	-114.211304	0	0	0.99913515	0.041580682
142.706741	-70.099922	-114.605087	0	0	0.99913515	0.041580682
142.990036	-29.719391	-142.000473	0	0	0	1
142.776337	-69.713699	-114.996712	0	0	0.99913515	0.041580682
142.843002	-69.329292	-115.386147	0	0	0.99913515	0.041580682
142.906784	-68.946724	-115.773384	0	0	0.99913515	0.041580682
142.872650	-30.987642	-142.027222	0	0	0	1
142.967712	-68.566025	-116.158409	0	0	0.99913515	0.041580682
143.025833	-68.187202	-116.541199	0	0	0.99913515	0.041580682
143.081192	-67.810303	-116.921745	0	0	0.99913515	0.041580682
142.742599	-32.254704	-142.050720	0	0	0	1
143.133835	-67.435326	-117.300034	0	0	0.99913515	0.041580682
143.183792	-67.062309	-117.676048	0	0	0.99913515	0.041580682
143.231094	-66.691261	-118.049767	0	0	0.99913515	0.041580682
142.599915	-33.520432	-142.070953	0	0	0	1
143.275787	-66.322212	-118.421188	0	0	0.99913515	0.041580682
143.317932	-65.955177	-118.790276	0	0	0.99913515	0.041580682
143.357559	-65.590172	-119.157043	0	0	0.99913515	0.041580682
142.444611	-34.784691	-142.087906	0	0	0	1
143.394714	-65.227219	-119.521461	0	0	0.99913515	0.041580682
143.429413	-64.866341	-119.883507	0	0	0.99913515	0.041580682
143.461731	-64.507538	-120.243179	0	0	0.99913515	0.041580682
143.491699	-64.150841	-120.600464	0	0	0.99913515	0.041580682
142.276703	-36.047344	-142.101593	0	0	0	1
143.519348	-63.796261	-120.955345	0	0	0.99913515	0.041580682
143.544724	-63.443821	-121.307800	0	0	0.99913515	0.041580682
143.567886	-63.093521	-121.657829	0	0	0.99913515	0.041580682
142.112732	-37.193005	-142.111832	0	0	0	1
143.588867	-62.745384	-122.005409	0	0	0.99913515	0.041580682
142.085312	-37.351269	-142.117325	0	0	0	1
142.059143	-37.509693	-142.119553	0	0	0	1
142.034256	-37.668312	-142.118500	0	0	0	1
143.607697	-62.399426	-122.350525	0	0	0.99913515	0.041580682
142.010635	-37.827160	-142.114182	0	0	0	1
141.988251	-37.986279	-142.106613	0	0	0	1
143.624435	-62.055653	-122.693161	0	0	0.99913515	0.041580682
141.967117	-38.145702	-142.095749	0	0	0	1
141.947235	-38.305466	-142.081619	0	0	0	1
143.639114	-61.714077	-123.033318	0	0	0.99913515	0.041580682
141.928574	-38.465603	-142.064209	0	0	0	1
141.911133	-38.626156	-142.043549	0	0	0	1
141.894913	-38.787155	-142.019592	0	0	0	1
143.651779	-61.374714	-123.370972	0	0	0.99913515	0.041580682
141.879898	-38.948635	-141.992401	0	0	0	1
141.866074	-39.110634	-141.961914	0	0	0	1
143.662476	-61.037575	-123.706108	0	0	0.99913515	0.041580682
141.853424	-39.273190	-141.928177	0	0	0	1
141.841949	-39.436329	-141.891174	0	0	0	1
143.671249	-60.702667	-124.038719	0	0	0.99913515	0.041580682
141.831619	-39.600098	-141.850906	0	0	0	1
141.822449	-39.764519	-141.807388	0	0	0	1
141.814407	-39.929634	-141.760590	0	0	0	1
143.678146	-60.369999	-124.368782	0	0	0.99913515	0.041580682
141.807465	-40.095474	-141.710556	0	0	0	1
141.801651	-40.262077	-141.657242	0	0	0.99913515	0.041580682
143.683182	-60.039577	-124.696297	0	0	0.99913515	0.041580682
141.796906	-40.429474	-141.600693	0	0	0.99913515	0.041580682
141.793243	-40.597702	-141.540878	0	0	0.99913515	0.041580682
143.686432	-59.711418	-125.021248	0	0	0.99913515	0.041580682
141.790634	-40.766785	-141.477829	0	0	0.99913515	0.041580682
141.789047	-40.936768	-141.411530	0	0	0.99913515	0.041580682
141.788498	-41.107674	-141.341980	0	0	0.99913515	0.041580682
143.687927	-59.385525	-125.343613	0	0	0.99913515	0.041580682
141.788940	-41.279541	-141.269196	0	0	0.99913515	0.041580682
141.798737	-41.455059	-141.180634	0	0	0.99913515	0.041580682
143.687698	-59.061901	-125.663391	0	0	0.99913515	0.041580682
141.819458	-41.634953	-141.073853	0	0	0.99913515	0.041580682
141.841034	-41.816128	-140.963837	0	0	0.99913515	0.041580682
143.685806	-58.740559	-125.980560	0	0	0.99913515	0.041580682
141.863449	-41.998611	-140.850632	0	0	0.99913515	0.041580682
143.682297	-58.421501	-126.295113	0	0	0.99913515	0.041580682
141.886673	-42.182442	-140.734207	0	0	0.99913515	0.041580682
141.910690	-42.367641	-140.614578	0	0	0.99913515	0.041580682
143.677200	-58.104736	-126.607033	0	0	0.99913515	0.041580682
141.935471	-42.554245	-140.491760	0	0	0.99913515	0.041580682
143.670547	-57.790260	-126.916313	0	0	0.99913515	0.041580682
141.960983	-42.742275	-140.365753	0	0	0.99913515	0.041580682
141.987213	-42.931767	-140.236557	0	0	0.99913515	0.041580682
143.662415	-57.478085	-127.222931	0	0	0.99913515	0.041580682
142.014145	-43.122742	-140.104187	0	0	0.99913515	0.041580682
143.652817	-57.168213	-127.526886	0	0	0.99913515	0.041580682
142.041718	-43.315231	-139.968643	0	0	0.99913515	0.041580682
142.069946	-43.509266	-139.829926	0	0	0.99913515	0.041580682
143.641800	-56.860641	-127.828163	0	0	0.99913515	0.041580682
142.098770	-43.704868	-139.688034	0	0	0.99913515	0.041580682
143.629425	-56.555378	-128.126755	0	0	0.99913515	0.041580682
142.128189	-43.902061	-139.542999	0	0	0.99913515	0.041580682
142.158157	-44.100883	-139.394791	0	0	0.99913515	0.041580682
143.615707	-56.252419	-128.422638	0	0	0.99913515	0.041580682
142.188629	-44.301350	-139.243454	0	0	0.99913515	0.041580682
143.600723	-55.951771	-128.715805	0	0	0.99913515	0.041580682
142.219620	-44.503490	-139.088959	0	0	0.99913515	0.041580682
142.251068	-44.707325	-138.931351	0	0	0.99913515	0.041580682
143.584473	-55.653431	-129.006256	0	0	0.99913515	0.041580682
142.282959	-44.912884	-138.770599	0	0	0.99913515	0.041580682
143.567047	-55.357399	-129.293961	0	0	0.99913515	0.041580682
142.315262	-45.120193	-138.606720	0	0	0.99913515	0.041580682
143.548447	-55.063671	-129.578918	0	0	0.99913515	0.041580682
142.347931	-45.329269	-138.439728	0	0	0.99913515	0.041580682
142.380951	-45.540142	-138.269638	0	0	0.99913515	0.041580682
143.528732	-54.772247	-129.861115	0	0	0.99913515	0.041580682
142.414276	-45.752834	-138.096436	0	0	0.99913515	0.041580682
143.507935	-54.483128	-130.140533	0	0	0.99913515	0.041580682
142.447891	-45.967361	-137.920135	0	0	0.99913515	0.041580682
143.486115	-54.196304	-130.417175	0	0	0.99913515	0.041580682
142.481750	-46.183750	-137.740753	0	0	0.99913515	0.041580682
143.463303	-53.911781	-130.691040	0	0	0.99913515	0.041580682
142.515839	-46.402023	-137.558273	0	0	0.99913515	0.041580682
142.550095	-46.622196	-137.372742	0	0	0.99913515	0.041580682
143.439529	-53.629547	-130.962082	0	0	0.99913515	0.041580682
142.584518	-46.844299	-137.184128	0	0	0.99913515	0.041580682
143.414856	-53.349602	-131.230316	0	0	0.99913515	0.041580682
142.619049	-47.068340	-136.992447	0	0	0.99913515	0.041580682
143.389313	-53.071934	-131.495728	0	0	0.99913515	0.041580682
142.653656	-47.294353	-136.797729	0	0	0.99913515	0.041580682
143.362946	-52.796543	-131.758301	0	0	0.99913515	0.041580682
142.688324	-47.522339	-136.599960	0	0	0.99913515	0.041580682
143.335785	-52.523422	-132.018021	0	0	0.99913515	0.041580682
142.722992	-47.752335	-136.399155	0	0	0.99913515	0.041580682
142.757660	-47.984348	-136.195312	0	0	0.99913515	0.041580682
143.307877	-52.252563	-132.274902	0	0	0.99913515	0.041580682
142.792252	-48.218395	-135.988464	0	0	0.99913515	0.041580682
143.279266	-51.983959	-132.528900	0	0	0.99913515	0.041580682
142.826752	-48.454502	-135.778580	0	0	0.99913515	0.041580682
143.250000	-51.717602	-132.780029	0	0	0.99913515	0.041580682
142.861130	-48.692677	-135.565704	0	0	0.99913515	0.041580682
143.220108	-51.453480	-133.028275	0	0	0.99913515	0.041580682
142.895340	-48.932938	-135.349838	0	0	0.99913515	0.041580682
143.189621	-51.191586	-133.273621	0	0	0.99913515	0.041580682
142.929352	-49.175301	-135.130981	0	0	0.99913515	0.041580682
143.158585	-50.931908	-133.516052	0	0	0.99913515	0.041580682
142.963120	-49.419785	-134.909149	0	0	0.99913515	0.041580682
143.127045	-50.674438	-133.755585	0	0	0.99913515	0.041580682
142.996613	-49.666397	-134.684341	0	0	0.99913515	0.041580682
143.095047	-50.419163	-133.992188	0	0	0.99913515	0.041580682
143.029785	-49.915157	-134.456573	0	0	0.99913515	0.041580682
143.062607	-50.166073	-134.225845	0	0	0.99913515	0.041580682
78.226868	-222.840485	-1.351613	0	0	0.99913515	0.041580682
125.072136	-297.513092	-1.351621	0	0	0.99913515	0.041580682
-57.398041	374.812561	-267.163147	0	0	0	1
223.152008	-453.855011	-1.351615	0	0	0.99913515	0.041580682
-123.937000	-25.536700	-41.053400	0.000000	0.000000	-0.267499	0.963558
