-86.052818	-148.090439	-83.005127	0	0	0	1
-86.919884	-147.975296	-83.141815	0	0	0	1
-85.185928	-148.198944	-82.867966	0	0	0	1
-87.787071	-147.853500	-83.278023	0	0	0	1
-84.319260	-148.300827	-82.730309	0	0	0	1
-88.654312	-147.725052	-83.413742	0	0	0	1
-83.452881	-148.396088	-82.592209	0	0	0	1
-89.521561	-147.589935	-83.548950	0	0	0	1
-82.586845	-148.484756	-82.453629	0	0	0	1
-90.388748	-147.448135	-83.683678	0	0	0	1
-81.721214	-148.566849	-82.314598	0	0	0	1
-91.255829	-147.299652	-83.817879	0	0	0	1
-80.856026	-148.642365	-82.175110	0	0	0.58850112	0.8084964
-92.122742	-147.144455	-83.951584	0	0	0	1
-79.991356	-148.711334	-82.035179	0	0	0.58850112	0.8084964
-92.989418	-146.982559	-84.084763	0	0	0	1
-79.127243	-148.773758	-81.894798	0	0	0	1
-93.855812	-146.813934	-84.217422	0	0	0	1
-78.263748	-148.829651	-81.753998	0	0	0	1
-94.721855	-146.638611	-84.349556	0	0	0	1
-77.400932	-148.879044	-81.612747	0	0	0	1
-95.587509	-146.456543	-84.481155	0	0	0	1
-76.538841	-148.921951	-81.471085	0	0	0	1
-96.452690	-146.267731	-84.612221	0	0	0	1
-75.677528	-148.958389	-81.328995	0	0	0	1
-97.317352	-146.072189	-84.742729	0	0	0	1
-74.817062	-148.988358	-81.186501	0	0	0	1
-73.957481	-149.011902	-81.043594	0	0	0	1
-98.181442	-145.869888	-84.872696	0	0	0	1
-73.098839	-149.029037	-80.900291	0	0	0	1
-99.044891	-145.660843	-85.002121	0	0	0	1
-72.241203	-149.039780	-80.756592	0	0	0	1
-99.907639	-145.445053	-85.130981	0	0	0	1
-71.384605	-149.044128	-80.612488	0	0	0	1
-100.769630	-145.222488	-85.259270	0	0	0	1
-70.529106	-149.042130	-80.468018	0	0	0	1
-101.630806	-144.993164	-85.386993	0	0	0	1
-69.674767	-149.033798	-80.323143	0	0	0	1
-102.491112	-144.757080	-85.514145	0	0	0	1
-68.821632	-149.019150	-80.177910	0	0	0	1
-103.350479	-144.514236	-85.640724	0	0	0	1
-67.969749	-148.998215	-80.032303	0	0	0	1
-104.208855	-144.264618	-85.766708	0	0	0	1
-67.119179	-148.971024	-79.886345	0	0	0	1
-105.066177	-144.008240	-85.892113	0	0	0	1
-66.269966	-148.937576	-79.740028	0	0	0	1
-105.922379	-143.745087	-86.016914	0	0	0	1
-65.422150	-148.897903	-79.593346	0	0	0	1
-106.777412	-143.475174	-86.141121	0	0	0	1
-64.575806	-148.852036	-79.446342	0	0	0	1
-107.631210	-143.198502	-86.264732	0	0	0	1
-63.730965	-148.799988	-79.298988	0	0	0	1
-108.483711	-142.915054	-86.387726	0	0	0	1
-62.887680	-148.741806	-79.151291	0	0	0	1
-109.334862	-142.624847	-86.510109	0	0	0	1
-62.046005	-148.677490	-79.003273	0	0	0	1
-110.184593	-142.327896	-86.631874	0	0	0	1
-61.205982	-148.607071	-78.854935	0	0	0	1
-60.367664	-148.530594	-78.706276	0	0	0	1
-111.032852	-142.024185	-86.753014	0	0	0	1
-59.531097	-148.448059	-78.557312	0	0	0	1
-111.879578	-141.713730	-86.873528	0	0	0	1
-58.696331	-148.359512	-78.408043	0	0	0	1
-112.724709	-141.396530	-86.993416	0	0	0	1
-57.863407	-148.264969	-78.258476	0	0	0	1
-113.568184	-141.072586	-87.112656	0	0	0	1
-57.032387	-148.164474	-78.108627	0	0	0	1
-114.409935	-140.741913	-87.231255	0	0	0	1
-56.203297	-148.058044	-77.958473	0	0	0	1
-115.249924	-140.404510	-87.349220	0	0	0	1
-55.376198	-147.945694	-77.808044	0	0	0.66627604	0.74570519
-116.088066	-140.060410	-87.466522	0	0	0	1
-54.551132	-147.827484	-77.657341	0	0	0.66627604	0.74570519
-116.924309	-139.709579	-87.583168	0	0	0	1
-53.728138	-147.703415	-77.506378	0	0	0.66627604	0.74570519
-117.758606	-139.352066	-87.699158	0	0	0	1
-52.907269	-147.573532	-77.355141	0	0	0.66627604	0.74570519
-52.088570	-147.437851	-77.203651	0	0	0	1
-118.590874	-138.987839	-87.814484	0	0	0	1
-51.272079	-147.296417	-77.051910	0	0	0	1
-119.421074	-138.616943	-87.929138	0	0	0	1
-50.457844	-147.149261	-76.899925	0	0	0	1
-120.249130	-138.239380	-88.043121	0	0	0	1
-49.645905	-146.996414	-76.747704	0	0	0	1
-121.074982	-137.855148	-88.156418	0	0	0	1
-48.836315	-146.837906	-76.595253	0	0	0	1
-121.898582	-137.464279	-88.269043	0	0	0	1
-48.029099	-146.673752	-76.442574	0	0	0	1
-122.719864	-137.066757	-88.380974	0	0	0	1
-47.224316	-146.503998	-76.289673	0	0	0	1
-123.538757	-136.662628	-88.492210	0	0	0	1
-46.421993	-146.328690	-76.136551	0	0	0	1
-45.622185	-146.147842	-75.983231	0	0	0	1
-124.355217	-136.251877	-88.602753	0	0	0	1
-44.824928	-145.961502	-75.829697	0	0	0	1
-125.169182	-135.834534	-88.712593	0	0	0	1
-44.030254	-145.769684	-75.675980	0	0	0	1
-125.980583	-135.410614	-88.821732	0	0	0	1
-43.238213	-145.572449	-75.522057	0	0	0	1
-126.789368	-134.980118	-88.930161	0	0	0	1
-42.448845	-145.369797	-75.367958	0	0	0	1
-127.595474	-134.543091	-89.037872	0	0	0	1
-41.662178	-145.161804	-75.213692	0	0	0	1
-128.398834	-134.099518	-89.144867	0	0	0	1
-40.878265	-144.948456	-75.059235	0	0	0	1
-40.097134	-144.729843	-74.904617	0	0	0	1
-129.199402	-133.649429	-89.251144	0	0	0	1
-39.318829	-144.505951	-74.749847	0	0	0	1
-129.997116	-133.192841	-89.356689	0	0	0	1
-38.543385	-144.276855	-74.594917	0	0	0	1
-130.791916	-132.729782	-89.461510	0	0	0	1
-37.770832	-144.042557	-74.439842	0	0	0	1
-131.583725	-132.260254	-89.565598	0	0	0	1
-37.001217	-143.803116	-74.284622	0	0	0	1
-132.372513	-131.784286	-89.668938	0	0	0	1
-36.234570	-143.558563	-74.129265	0	0	0	1
-35.470932	-143.308945	-73.973785	0	0	0	1
-133.158203	-131.301895	-89.771538	0	0	0.41614682	0.90929743
-34.710331	-143.054276	-73.818169	0	0	0	1
-133.940735	-130.813110	-89.873398	0	0	0	1
-33.952808	-142.794617	-73.662445	0	0	0	1
-134.720062	-130.317947	-89.974495	0	0	0	1
-33.198391	-142.529999	-73.506622	0	0	0	1
-135.496109	-129.816422	-90.074844	0	0	0	1
-32.447117	-142.260437	-73.350677	0	0	0	1
-136.268845	-129.308563	-90.174438	0	0	0	1
-31.699020	-141.986008	-73.194641	0	0	0	1
-30.954128	-141.706726	-73.038513	0	0	0.73739371	0.67546319
-137.038177	-128.794388	-90.273270	0	0	0	1
-30.212479	-141.422638	-72.882294	0	0	0.73739371	0.67546319
-137.804077	-128.273926	-90.371323	0	0	0	1
-29.474102	-141.133774	-72.726006	0	0	0.73739371	0.67546319
-138.566467	-127.747215	-90.468613	0	0	0	1
-28.739027	-140.840179	-72.569633	0	0	0.73739371	0.67546319
-139.325302	-127.214249	-90.565132	0	0	0	1
-28.007286	-140.541885	-72.413185	0	0	0	1
-27.278913	-140.238953	-72.256691	0	0	0	1
-140.080521	-126.675079	-90.660866	0	0	0	1
-26.553932	-139.931412	-72.100136	0	0	0	1
-140.832062	-126.129730	-90.755821	0	0	0	1
-25.832375	-139.619278	-71.943535	0	0	0	1
-141.579880	-125.578209	-90.849991	0	0	0	1
-25.114267	-139.302628	-71.786888	0	0	0	1
-142.323898	-125.020561	-90.943375	0	0	0	1
-24.399643	-138.981491	-71.630203	0	0	0	1
-23.688530	-138.655899	-71.473488	0	0	0	1
-143.064072	-124.456810	-91.035957	0	0	0	1
-22.980944	-138.325882	-71.316750	0	0	0	1
-143.800339	-123.886978	-91.127754	0	0	0	1
-22.276930	-137.991516	-71.159996	0	0	0	1
-144.532669	-123.311104	-91.218742	0	0	0	1
-21.576502	-137.652817	-71.003227	0	0	0	1
-145.260971	-122.729210	-91.308929	0	0	0	1
-20.879692	-137.309814	-70.846443	0	0	0	1
-20.186518	-136.962585	-70.689667	0	0	0	1
-145.985199	-122.141335	-91.398308	0	0	0	1
-19.497015	-136.611145	-70.532906	0	0	0	1
-146.705322	-121.547493	-91.486877	0	0	0	1
-18.811197	-136.255539	-70.376144	0	0	0	1
-147.421249	-120.947739	-91.574638	0	0	0	1
-18.129091	-135.895813	-70.219414	0	0	0	1
-17.450724	-135.532013	-70.062706	0	0	0	1
-148.132950	-120.342079	-91.661575	0	0	0	1
-16.776119	-135.164169	-69.906029	0	0	0	1
-148.840347	-119.730568	-91.747681	0	0	0	1
-16.105295	-134.792328	-69.749382	0	0	0	1
-149.543427	-119.113220	-91.832970	0	0	0	1
-15.438277	-134.416534	-69.592781	0	0	0	1
-150.242081	-118.490089	-91.917435	0	0	0	1
-14.775088	-134.036835	-69.436226	0	0	0	1
-14.115742	-133.653275	-69.279739	0	0	0	1
-150.936310	-117.861191	-92.001060	0	0	0	1
-13.460264	-133.265869	-69.123306	0	0	0	1
-151.626022	-117.226578	-92.083855	0	0	0	1
-12.808673	-132.874680	-68.966934	0	0	0	1
-152.311172	-116.586273	-92.165817	0	0	0	1
-12.160993	-132.479767	-68.810654	0	0	0	1
-11.517235	-132.081146	-68.654442	0	0	0	1
-152.991714	-115.940308	-92.246933	0	0	0	1
-10.877418	-131.678864	-68.498329	0	0	0	1
-153.667603	-115.288734	-92.327202	0	0	0	1
-10.241571	-131.272980	-68.342300	0	0	0.80114363	0.59847213
-9.609699	-130.863525	-68.186371	0	0	0.80114363	0.59847213
-154.338776	-114.631577	-92.406624	0	0	0	1
-8.981825	-130.450531	-68.030548	0	0	0.80114363	0.59847213
-155.005173	-113.968872	-92.485199	0	0	0.32328956	0.94630009
-8.357965	-130.034058	-67.874832	0	0	0.80114363	0.59847213
-155.666763	-113.300667	-92.562912	0	0	0.32328956	0.94630009
-7.738134	-129.614151	-67.719238	0	0	0.80114363	0.59847213
-7.122346	-129.190826	-67.563766	0	0	0.80114363	0.59847213
-156.323471	-112.626999	-92.639778	0	0	0.32328956	0.94630009
-6.510619	-128.764160	-67.408424	0	0	0	1
-156.975266	-111.947906	-92.715775	0	0	0	1
-5.902969	-128.334183	-67.253220	0	0	0	1
-157.622086	-111.263412	-92.790916	0	0	0	1
-5.299402	-127.900932	-67.098167	0	0	0	1
-4.699945	-127.464455	-66.943245	0	0	0	1
-158.263885	-110.573578	-92.865181	0	0	0	1
-4.104597	-127.024796	-66.788490	0	0	0	1
-158.900620	-109.878433	-92.938591	0	0	0	1
-3.513379	-126.581993	-66.633888	0	0	0	1
-2.926303	-126.136093	-66.479454	0	0	0	1
-159.532227	-109.178032	-93.011124	0	0	0	1
-2.343376	-125.687134	-66.325195	0	0	0	1
-160.158676	-108.472412	-93.082779	0	0	0	1
-1.764612	-125.235168	-66.171120	0	0	0	1
-160.779892	-107.761597	-93.153557	0	0	0	1
-1.190022	-124.780228	-66.017212	0	0	0	1
-0.619616	-124.322372	-65.863518	0	0	0	1
-161.395859	-107.045639	-93.223457	0	0	0	1
-0.053403	-123.861618	-65.709999	0	0	0	1
-162.006500	-106.324600	-93.292465	0	0	0	1
0.508608	-123.398033	-65.556694	0	0	0	1
1.066408	-122.931648	-65.403603	0	0	0	1
-162.611786	-105.598503	-93.360596	0	0	0	1
1.619990	-122.462509	-65.250725	0	0	0	1
-163.211670	-104.867393	-93.427841	0	0	0	1
2.169343	-121.990654	-65.098061	0	0	0	1
2.714460	-121.516136	-64.945633	0	0	0	1
-163.806091	-104.131325	-93.494194	0	0	0	1
3.255331	-121.038979	-64.793427	0	0	0	1
-164.395020	-103.390335	-93.559647	0	0	0	1
3.791965	-120.559242	-64.641472	0	0	0	1
-164.978378	-102.644478	-93.624207	0	0	0	1
4.324332	-120.076965	-64.489754	0	0	0	1
4.852448	-119.592178	-64.338287	0	0	0	1
-165.556168	-101.893799	-93.687866	0	0	0	1
5.376300	-119.104942	-64.187088	0	0	0	1
-166.128311	-101.138321	-93.750626	0	0	0	1
5.895876	-118.615280	-64.036140	0	0	0	1
6.411183	-118.123253	-63.885468	0	0	0	1
-166.694778	-100.378128	-93.812485	0	0	0	1
6.922215	-117.628883	-63.735069	0	0	0	1
-167.255524	-99.613243	-93.873436	0	0	0	1
7.428960	-117.132225	-63.584949	0	0	0.85688874	0.51550139
7.931425	-116.633316	-63.435123	0	0	0.85688874	0.51550139
-167.810486	-98.843719	-93.933472	0	0	0	1
8.429605	-116.132202	-63.285587	0	0	0.85688874	0.51550139
-168.359650	-98.069611	-93.992599	0	0	0	1
8.923500	-115.628914	-63.136345	0	0	0.85688874	0.51550139
9.413107	-115.123497	-62.987411	0	0	0.85688874	0.51550139
-168.902954	-97.290955	-94.050819	0	0	0	1
9.898418	-114.615997	-62.838783	0	0	0.85688874	0.51550139
-169.440353	-96.507820	-94.108116	0	0	0	1
10.379786	-114.107109	-62.689423	0	0	0	1
10.860146	-113.602295	-62.530506	0	0	0.85688874	0.51550139
-169.971832	-95.720230	-94.164505	0	0	0	1
11.336292	-113.095467	-62.371952	0	0	0.85688874	0.51550139
11.808223	-112.586647	-62.213749	0	0	0.85688874	0.51550139
-170.497314	-94.928261	-94.219955	0	0	0	1
12.275942	-112.075874	-62.055908	0	0	0	1
-171.016785	-94.131943	-94.274498	0	0	0	1
12.739443	-111.563210	-61.898445	0	0	0	1
13.198738	-111.048668	-61.741352	0	0	0	1
-171.530182	-93.331337	-94.328125	0	0	0	1
13.653811	-110.532303	-61.584644	0	0	0	1
-172.037491	-92.526497	-94.380806	0	0	0	1
14.104689	-110.014137	-61.428326	0	0	0	1
14.551353	-109.494232	-61.272404	0	0	0	1
-172.538651	-91.717468	-94.432564	0	0	0	1
14.993812	-108.972603	-61.116882	0	0	0	1
-173.033646	-90.904305	-94.483391	0	0	0.22720209	0.97384763
15.432075	-108.449303	-60.961773	0	0	0	1
15.866134	-107.924370	-60.807072	0	0	0	1
-173.522415	-90.087059	-94.533287	0	0	0.22720209	0.97384763
16.296005	-107.397827	-60.652790	0	0	0	1
16.721684	-106.869728	-60.498940	0	0	0	1
-174.004929	-89.265785	-94.582253	0	0	0.22720209	0.97384763
17.143169	-106.340111	-60.345516	0	0	0	1
-174.481140	-88.440536	-94.630280	0	0	0.22720209	0.97384763
17.560488	-105.808990	-60.192532	0	0	0	1
17.973625	-105.276421	-60.039993	0	0	0	1
-174.951035	-87.611374	-94.677361	0	0	0	1
18.382591	-104.742439	-59.887901	0	0	0	1
-175.414551	-86.778336	-94.723503	0	0	0	1
18.787395	-104.207085	-59.736267	0	0	0	1
19.188036	-103.670387	-59.585098	0	0	0	1
-175.871689	-85.941490	-94.768707	0	0	0	1
19.584534	-103.132378	-59.434395	0	0	0	1
19.976889	-102.593094	-59.284164	0	0	0	1
-176.322372	-85.100883	-94.812965	0	0	0	1
20.365101	-102.052582	-59.134418	0	0	0	1
-176.766586	-84.256577	-94.856277	0	0	0	1
20.749186	-101.510872	-58.985157	0	0	0	1
21.129152	-100.967987	-58.836380	0	0	0	1
-177.204285	-83.408623	-94.898651	0	0	0	1
21.505009	-100.423981	-58.688110	0	0	0	1
21.876757	-99.878876	-58.540340	0	0	0	1
-177.635468	-82.557076	-94.940056	0	0	0	1
22.244410	-99.332710	-58.393078	0	0	0	1
-178.060059	-81.701996	-94.980522	0	0	0	1
22.607983	-98.785515	-58.246334	0	0	0	1
22.967472	-98.237328	-58.100109	0	0	0	1
-178.478043	-80.843445	-95.020042	0	0	0	1
23.322906	-97.688179	-57.954414	0	0	0	1
23.674280	-97.138100	-57.809242	0	0	0	1
-178.889404	-79.981468	-95.058594	0	0	0	1
24.021606	-96.587135	-57.664616	0	0	0.90407214	0.42737988
24.364904	-96.035301	-57.520538	0	0	0	1
-179.294098	-79.116127	-95.096199	0	0	0	1
24.704174	-95.482635	-57.377003	0	0	0	1
-179.692078	-78.247475	-95.132843	0	0	0	1
25.039433	-94.929184	-57.234020	0	0	0	1
25.370697	-94.374954	-57.091606	0	0	0	1
-180.083328	-77.375587	-95.168533	0	0	0	1
25.697968	-93.820000	-56.949757	0	0	0	1
26.021271	-93.264328	-56.808475	0	0	0	1
-180.467834	-76.500504	-95.203262	0	0	0	1
26.340607	-92.708000	-56.667778	0	0	0	1
26.655994	-92.151024	-56.527660	0	0	0	1
-180.845535	-75.622284	-95.237030	0	0	0	1
26.967442	-91.593437	-56.388130	0	0	0	1
-181.216431	-74.741005	-95.269829	0	0	0	1
27.274969	-91.035271	-56.249195	0	0	0	1
27.578585	-90.476555	-56.110859	0	0	0	1
-181.580475	-73.856705	-95.301674	0	0	0	1
27.878304	-89.917313	-55.973129	0	0	0	1
28.174145	-89.357582	-55.836014	0	0	0	1
-181.937653	-72.969452	-95.332542	0	0	0	1
28.466116	-88.797386	-55.699509	0	0	0	1
28.754236	-88.236755	-55.563629	0	0	0	1
-182.287918	-72.079308	-95.362457	0	0	0	1
29.038515	-87.675720	-55.428375	0	0	0	1
-182.631271	-71.186333	-95.391396	0	0	0	1
29.318977	-87.114296	-55.293755	0	0	0	1
29.595625	-86.552536	-55.159767	0	0	0	1
-182.967667	-70.290581	-95.419365	0	0	0	1
29.868484	-85.990440	-55.026428	0	0	0	1
30.137566	-85.428047	-54.893734	0	0	0	1
-183.297089	-69.392120	-95.446365	0	0	0	1
30.402885	-84.865395	-54.761696	0	0	0	1
30.664463	-84.302490	-54.630318	0	0	0	1
-183.619492	-68.491005	-95.472404	0	0	0	1
30.922310	-83.739365	-54.499599	0	0	0	1
31.176447	-83.176048	-54.369545	0	0	0	1
-183.934891	-67.587303	-95.497459	0	0	0	1
31.426888	-82.612564	-54.240170	0	0	0	1
31.673653	-82.048943	-54.111477	0	0	0	1
-184.243225	-66.681068	-95.521553	0	0	0	1
31.916752	-81.485199	-53.983463	0	0	0	1
-184.544495	-65.772362	-95.544655	0	0	0	1
32.156212	-80.921364	-53.856140	0	0	0	1
32.392044	-80.357460	-53.729515	0	0	0	1
-184.838684	-64.861259	-95.566795	0	0	0	1
-185.125748	-63.947800	-95.587959	0	0	0.1288445	0.99166481
-185.405670	-63.032066	-95.608139	0	0	0.1288445	0.99166481
-185.678436	-62.114117	-95.627350	0	0	0.1288445	0.99166481
-185.944031	-61.194004	-95.645592	0	0	0.1288445	0.99166481
-186.202423	-60.271797	-95.662842	0	0	0	1
-186.453613	-59.347565	-95.679108	0	0	0	1
-186.697556	-58.421364	-95.694412	0	0	0	1
-186.934265	-57.493252	-95.708710	0	0	0	1
-187.163696	-56.563305	-95.722046	0	0	0	1
-187.385849	-55.631580	-95.734390	0	0	0	1
-187.600708	-54.698139	-95.745758	0	0	0	1
-187.808258	-53.763050	-95.756149	0	0	0	1
-188.008484	-52.826374	-95.765541	0	0	0	1
-188.201355	-51.888180	-95.773972	0	0	0	1
-188.386887	-50.948528	-95.781403	0	0	0	1
-188.505280	-50.317314	-95.787392	0	0	0	1
-188.614853	-49.714111	-95.792343	0	0	0	1
-188.721298	-49.110378	-95.796310	0	0	0	1
-188.824631	-48.506119	-95.799294	0	0	0	1
-188.924850	-47.901344	-95.801300	0	0	0	1
-189.021942	-47.296074	-95.802315	0	0	0	1
-189.115921	-46.690311	-95.802353	0	0	0	1
-189.206772	-46.084068	-95.801407	0	0	0	1
-189.294479	-45.477356	-95.799469	0	0	0	1
-189.379074	-44.870190	-95.796547	0	0	0	1
-189.460526	-44.262577	-95.792633	0	0	0	1
-189.538849	-43.654530	-95.787750	0	0	0	1
-189.614044	-43.046059	-95.781868	0	0	0	1
-189.686096	-42.437176	-95.775009	0	0	0	1
40.456947	-86.231934	-60.703121	0	0	0.94222235	0.33498812
-189.755005	-41.827888	-95.767166	0	0	0	1
-189.820786	-41.218212	-95.758339	0	0	0	1
-189.883408	-40.608158	-95.748528	0	0	0	1
-189.942902	-39.997734	-95.737740	0	0	0	1
-189.999237	-39.386951	-95.725967	0	0	0	1
-190.052429	-38.775826	-95.713211	0	0	0	1
-190.102478	-38.164364	-95.699478	0	0	0	1
-190.149353	-37.552578	-95.684753	0	0	0.029199523	0.9995736
-190.193085	-36.940479	-95.669052	0	0	0.029199523	0.9995736
-190.233658	-36.328079	-95.652382	0	0	0.029199523	0.9995736
-190.271072	-35.715389	-95.634720	0	0	0.029199523	0.9995736
-190.305313	-35.102417	-95.616081	0	0	0.029199523	0.9995736
-190.336395	-34.489182	-95.596474	0	0	0.029199523	0.9995736
-190.364319	-33.875687	-95.575882	0	0	0.029199523	0.9995736
-190.389053	-33.261948	-95.554314	0	0	0.029199523	0.9995736
-190.410629	-32.647976	-95.531776	0	0	0.029199523	0.9995736
-190.429016	-32.033779	-95.508263	0	0	0.029199523	0.9995736
-190.444244	-31.419373	-95.483772	0	0	0.029199523	0.9995736
-190.456268	-30.804766	-95.458313	0	0	0.029199523	0.9995736
-190.465134	-30.189970	-95.431877	0	0	0.029199523	0.9995736
-190.470795	-29.574999	-95.404480	0	0	0.029199523	0.9995736
-190.473267	-28.959862	-95.376099	0	0	0.029199523	0.9995736
-190.472549	-28.344570	-95.346764	0	0	0.029199523	0.9995736
-190.468643	-27.729137	-95.316460	0	0	0.029199523	0.9995736
-190.462387	-27.113531	-95.283966	0	0	0.029199523	0.9995736
-190.468903	-26.496891	-95.227669	0	0	0.029199523	0.9995736
-190.472198	-25.879932	-95.170403	0	0	0.029199523	0.9995736
-190.472260	-25.262671	-95.112198	0	0	0.029199523	0.9995736
-190.469101	-24.645111	-95.053040	0	0	0.029199523	0.9995736
-190.462692	-24.027273	-94.992928	0	0	0.029199523	0.9995736
-190.453033	-23.409164	-94.931877	0	0	0.029199523	0.9995736
-190.440125	-22.790800	-94.869888	0	0	0.029199523	0.9995736
-190.423965	-22.172192	-94.806953	0	0	0.029199523	0.9995736
-190.404541	-21.553350	-94.743095	0	0	0.029199523	0.9995736
-190.381836	-20.934292	-94.678291	0	0	0.029199523	0.9995736
-190.355865	-20.315027	-94.612564	0	0	0.029199523	0.9995736
-190.326614	-19.695568	-94.545898	0	0	0.029199523	0.9995736
-190.294083	-19.075932	-94.478325	0	0	0.029199523	0.9995736
-190.258240	-18.456125	-94.409813	0	0	0.029199523	0.9995736
-190.219116	-17.836166	-94.340385	0	0	0.029199523	0.9995736
-190.176682	-17.216064	-94.270035	0	0	0.029199523	0.9995736
-190.130936	-16.595837	-94.198769	0	0	0.029199523	0.9995736
-190.081879	-15.975497	-94.126595	0	0	0.029199523	0.9995736
-190.029495	-15.355057	-94.053513	0	0	0.029199523	0.9995736
-189.973801	-14.734529	-93.979523	0	0	0.029199523	0.9995736
-189.914749	-14.113930	-93.904633	0	0	0.029199523	0.9995736
-189.852371	-13.493270	-93.828835	0	0	0.029199523	0.9995736
-189.786652	-12.872566	-93.752144	0	0	0.029199523	0.9995736
-189.717575	-12.251833	-93.674561	0	0	0.029199523	0.9995736
-189.645142	-11.631080	-93.596069	0	0	0.029199523	0.9995736
-189.569336	-11.010328	-93.516716	0	0	0.029199523	0.9995736
-189.490173	-10.389586	-93.436447	0	0	0.029199523	0.9995736
-189.407639	-9.768872	-93.355316	0	0	0.029199523	0.9995736
-189.321716	-9.148199	-93.273300	0	0	0.029199523	0.9995736
-189.232407	-8.527582	-93.190407	0	0	0.029199523	0.9995736
-189.139709	-7.907038	-93.106659	0	0	0.029199523	0.9995736
-189.043610	-7.286577	-93.022018	0	0	0.029199523	0.9995736
-188.944107	-6.666220	-92.936531	0	0	0.029199523	0.9995736
-188.841187	-6.045978	-92.850166	0	0	0.029199523	0.9995736
-188.734863	-5.425869	-92.762939	0	0	0.029199523	0.9995736
-188.625122	-4.805905	-92.674866	0	0	0.029199523	0.9995736
-188.511948	-4.186106	-92.585938	0	0	0.029199523	0.9995736
-188.395325	-3.566486	-92.496162	0	0	0.029199523	0.9995736
-188.275284	-2.947060	-92.405540	0	0	0.029199523	0.9995736
-188.151794	-2.327844	-92.314087	0	0	0.029199523	0.9995736
-188.024857	-1.708851	-92.221779	0	0	0.029199523	0.9995736
-187.894455	-1.090105	-92.128647	0	0	0.029199523	0.9995736
-187.760605	-0.471617	-92.034683	0	0	0.029199523	0.9995736
-187.623276	0.146596	-91.939888	0	0	0.029199523	0.9995736
-187.482483	0.764516	-91.844276	0	0	0.029199523	0.9995736
-187.338211	1.382126	-91.747841	0	0	0.029199523	0.9995736
-187.190445	1.999413	-91.650581	0	0	0.029199523	0.9995736
-187.039200	2.616355	-91.552528	0	0	0.029199523	0.9995736
-186.884460	3.232941	-91.453651	0	0	0.029199523	0.9995736
53.778030	-96.210693	-72.347801	0	0	0.94222235	0.33498812
-186.726227	3.849149	-91.353981	0	0	0.029199523	0.9995736
-186.564484	4.464959	-91.253510	0	0	0.029199523	0.9995736
-186.399246	5.080359	-91.152245	0	0	0.029199523	0.9995736
-186.230469	5.695333	-91.050179	0	0	0.029199523	0.9995736
-186.058197	6.309855	-90.947334	0	0	0.029199523	0.9995736
-185.882385	6.923916	-90.843697	0	0	0.029199523	0.9995736
-185.703049	7.537492	-90.739288	0	0	0.029199523	0.9995736
-185.520172	8.150571	-90.634087	0	0	-0.070737201	0.99749499
-185.333755	8.763126	-90.528130	0	0	-0.070737201	0.99749499
-185.143814	9.375143	-90.421410	0	0	-0.070737201	0.99749499
-184.950302	9.986608	-90.313911	0	0	-0.070737201	0.99749499
-184.753250	10.597494	-90.205658	0	0	-0.070737201	0.99749499
-184.552628	11.207788	-90.096657	0	0	-0.070737201	0.99749499
-184.348450	11.817472	-89.986893	0	0	-0.070737201	0.99749499
-184.140717	12.426521	-89.876404	0	0	-0.070737201	0.99749499
-183.929398	13.034920	-89.765160	0	0	-0.070737201	0.99749499
-183.714508	13.642652	-89.653175	0	0	-0.070737201	0.99749499
-183.496048	14.249685	-89.540466	0	0	-0.070737201	0.99749499
-183.273987	14.856017	-89.427017	0	0	-0.070737201	0.99749499
-183.048355	15.461618	-89.312859	0	0	-0.070737201	0.99749499
-182.819122	16.066477	-89.197968	0	0	-0.070737201	0.99749499
-182.586304	16.670555	-89.082367	0	0	-0.070737201	0.99749499
-182.349869	17.273851	-88.966057	0	0	-0.070737201	0.99749499
-182.109848	17.876341	-88.849037	0	0	-0.070737201	0.99749499
-181.866211	18.477999	-88.731323	0	0	-0.070737201	0.99749499
-181.618973	19.078804	-88.612907	0	0	-0.070737201	0.99749499
-181.368118	19.678743	-88.493805	0	0	-0.070737201	0.99749499
-181.113647	20.277788	-88.374008	0	0	-0.070737201	0.99749499
-180.855560	20.875919	-88.253532	0	0	-0.070737201	0.99749499
-180.593857	21.473124	-88.132385	0	0	-0.070737201	0.99749499
-180.328522	22.069366	-88.010559	0	0	-0.070737201	0.99749499
-180.059555	22.664640	-87.888062	0	0	-0.070737201	0.99749499
-179.786957	23.258911	-87.764908	0	0	-0.070737201	0.99749499
-179.510742	23.852169	-87.641090	0	0	-0.070737201	0.99749499
-179.230881	24.444384	-87.516624	0	0	-0.070737201	0.99749499
-178.947388	25.035538	-87.391510	0	0	-0.070737201	0.99749499
-178.660248	25.625607	-87.265747	0	0	-0.070737201	0.99749499
-178.369461	26.214569	-87.139343	0	0	-0.070737201	0.99749499
-178.075043	26.802406	-87.012314	0	0	-0.070737201	0.99749499
-177.776978	27.389093	-86.884651	0	0	-0.070737201	0.99749499
-177.475266	27.974602	-86.756371	0	0	-0.070737201	0.99749499
-177.169907	28.558920	-86.627464	0	0	-0.070737201	0.99749499
-176.860886	29.142017	-86.497948	0	0	-0.070737201	0.99749499
-176.548218	29.723881	-86.367821	0	0	-0.070737201	0.99749499
-176.231903	30.304478	-86.237091	0	0	-0.070737201	0.99749499
-175.911942	30.883785	-86.105766	0	0	-0.070737201	0.99749499
-175.588318	31.461786	-85.973846	0	0	-0.070737201	0.99749499
-175.261047	32.038448	-85.841339	0	0	-0.070737201	0.99749499
-174.930115	32.613762	-85.708252	0	0	-0.070737201	0.99749499
-174.595520	33.187691	-85.574585	0	0	-0.070737201	0.99749499
-174.257278	33.760220	-85.440346	0	0	-0.070737201	0.99749499
-173.915390	34.331318	-85.305542	0	0	-0.070737201	0.99749499
-173.569839	34.900970	-85.170174	0	0	-0.070737201	0.99749499
9.713446	43.191948	-39.468040	0	0	0	1
-173.220627	35.469143	-85.034256	0	0	-0.070737201	0.99749499
-172.867767	36.035816	-84.897781	0	0	-0.070737201	0.99749499
10.180203	43.121700	-39.890869	0	0	-0.82533563	0.56464246
-172.511246	36.600971	-84.760757	0	0	-0.070737201	0.99749499
-172.151077	37.164577	-84.623207	0	0	-0.070737201	0.99749499
10.628998	43.048157	-40.297108	0	0	-0.82533563	0.56464246
9.800210	43.939953	-39.586983	0	0	0	1
-171.787262	37.726616	-84.485115	0	0	-0.070737201	0.99749499
-171.419785	38.287048	-84.346497	0	0	-0.070737201	0.99749499
11.060411	42.971901	-40.687317	0	0	-0.82533563	0.56464246
-171.048660	38.845871	-84.207352	0	0	-0.070737201	0.99749499
11.475020	42.893463	-41.062054	0	0	-0.82533563	0.56464246
-170.673889	39.403046	-84.067688	0	0	-0.070737201	0.99749499
-170.295471	39.958542	-83.927513	0	0	-0.070737201	0.99749499
11.873393	42.813328	-41.421864	0	0	-0.82533563	0.56464246
-169.913406	40.512356	-83.786835	0	0	-0.070737201	0.99749499
12.256053	42.731937	-41.767246	0	0	0	1
-169.527695	41.064442	-83.645653	0	0	-0.070737201	0.99749499
12.623521	42.649700	-42.098701	0	0	-0.82533563	0.56464246
-169.138351	41.614784	-83.503975	0	0	-0.070737201	0.99749499
-168.745377	42.163361	-83.361809	0	0	-0.070737201	0.99749499
12.976313	42.566967	-42.416721	0	0	-0.87758258	0.4794255
-168.348755	42.710136	-83.219147	0	0	-0.070737201	0.99749499
13.314905	42.484081	-42.721752	0	0	-0.87758258	0.4794255
-167.948502	43.255093	-83.076019	0	0	-0.070737201	0.99749499
13.639779	42.401329	-43.014256	0	0	-0.87758258	0.4794255
-167.544617	43.798210	-82.932411	0	0	-0.070737201	0.99749499
13.951383	42.318974	-43.294651	0	0	-0.87758258	0.4794255
-167.137100	44.339447	-82.788345	0	0	-0.070737201	0.99749499
14.250151	42.237278	-43.563354	0	0	-0.87758258	0.4794255
-166.725967	44.878792	-82.643806	0	0	-0.070737201	0.99749499
14.536510	42.156433	-43.820763	0	0	-0.87758258	0.4794255
-166.311218	45.416210	-82.498817	0	0	-0.070737201	0.99749499
14.810855	42.076660	-44.067245	0	0	-0.87758258	0.4794255
-165.892853	45.951683	-82.353378	0	0	-0.070737201	0.99749499
15.073595	41.998112	-44.303192	0	0	-0.87758258	0.4794255
-165.470856	46.485184	-82.207497	0	0	-0.070737201	0.99749499
15.325088	41.920959	-44.528931	0	0	-0.87758258	0.4794255
-165.045273	47.016678	-82.061172	0	0	-0.070737201	0.99749499
15.565704	41.845333	-44.744812	0	0	-0.87758258	0.4794255
-164.616074	47.546150	-81.914413	0	0	-0.070737201	0.99749499
15.795791	41.771351	-44.951157	0	0	0	1
-164.183289	48.073570	-81.767227	0	0	-0.070737201	0.99749499
16.015684	41.699123	-45.148281	0	0	-0.87758258	0.4794255
-163.746902	48.598907	-81.619621	0	0	-0.070737201	0.99749499
16.225706	41.628750	-45.336479	0	0	0	1
16.426167	41.560303	-45.516045	0	0	-0.87758258	0.4794255
-163.306915	49.122143	-81.471596	0	0	-0.070737201	0.99749499
16.617363	41.493858	-45.687248	0	0	-0.87758258	0.4794255
-162.863358	49.643246	-81.323166	0	0	-0.070737201	0.99749499
16.799582	41.429470	-45.850361	0	0	-0.87758258	0.4794255
16.973101	41.367199	-46.005630	0	0	-0.92106097	0.38941839
-162.416214	50.162197	-81.174332	0	0	-0.070737201	0.99749499
17.138180	41.307076	-46.153305	0	0	-0.92106097	0.38941839
17.295080	41.249142	-46.293617	0	0	-0.92106097	0.38941839
-161.965500	50.678959	-81.025101	0	0	-0.070737201	0.99749499
17.118052	41.567005	-46.382874	0	0	-0.92106097	0.38941839
-161.511215	51.193508	-80.875473	0	0	-0.070737201	0.99749499
-161.053375	51.705822	-80.725456	0	0	-0.070737201	0.99749499
16.626438	42.236946	-46.429497	0	0	-0.92106097	0.38941839
-160.591980	52.215874	-80.575066	0	0	-0.070737201	0.99749499
16.130175	42.903236	-46.477100	0	0	-0.87758258	0.4794255
-160.127029	52.723637	-80.424294	0	0	-0.070737201	0.99749499
15.629299	43.565830	-46.525673	0	0	-0.87758258	0.4794255
-159.658554	53.229080	-80.273163	0	0	-0.16996714	0.98544973
15.123840	44.224693	-46.575218	0	0	-0.87758258	0.4794255
-159.186523	53.732182	-80.121658	0	0	-0.16996714	0.98544973
-158.710968	54.232910	-79.969810	0	0	-0.16996714	0.98544973
14.613829	44.879799	-46.625732	0	0	-0.87758258	0.4794255
-158.231903	54.731247	-79.817604	0	0	-0.16996714	0.98544973
14.099291	45.531105	-46.677208	0	0	-0.87758258	0.4794255
-157.749313	55.227154	-79.665047	0	0	-0.16996714	0.98544973
13.580258	46.178589	-46.729649	0	0	-0.87758258	0.4794255
-157.263229	55.720612	-79.512161	0	0	-0.16996714	0.98544973
-156.773636	56.211594	-79.358940	0	0	-0.16996714	0.98544973
13.056767	46.822208	-46.783051	0	0	-0.87758258	0.4794255
-156.280563	56.700066	-79.205391	0	0	-0.16996714	0.98544973
12.528850	47.461933	-46.837418	0	0	-0.87758258	0.4794255
-155.783997	57.186005	-79.051521	0	0	-0.16996714	0.98544973
11.996533	48.097733	-46.892735	0	0	-0.87758258	0.4794255
-155.283981	57.669380	-78.897346	0	0	-0.16996714	0.98544973
11.459855	48.729565	-46.949009	0	0	-0.87758258	0.4794255
-154.780487	58.150177	-78.742851	0	0	-0.16996714	0.98544973
-154.273544	58.628357	-78.588058	0	0	-0.16996714	0.98544973
10.918844	49.357414	-47.006241	0	0	-0.87758258	0.4794255
-153.763153	59.103893	-78.432968	0	0	-0.16996714	0.98544973
10.373535	49.981232	-47.064415	0	0	-0.87758258	0.4794255
-153.249344	59.576763	-78.277588	0	0	-0.16996714	0.98544973
9.823959	50.601002	-47.123547	0	0	-0.87758258	0.4794255
-152.732101	60.046936	-78.121925	0	0	-0.16996714	0.98544973
-152.211441	60.514385	-77.965988	0	0	-0.16996714	0.98544973
9.270152	51.216679	-47.183617	0	0	-0.87758258	0.4794255
-151.687378	60.979084	-77.809776	0	0	-0.16996714	0.98544973
8.712146	51.828239	-47.244633	0	0	-0.87758258	0.4794255
-151.159927	61.441006	-77.653297	0	0	-0.16996714	0.98544973
8.149976	52.435654	-47.306599	0	0	-0.82533563	0.56464246
-150.629089	61.900124	-77.496559	0	0	-0.16996714	0.98544973
7.583675	53.038891	-47.369492	0	0	-0.82533563	0.56464246
-150.094894	62.356403	-77.339569	0	0	-0.16996714	0.98544973
-149.557327	62.809826	-77.182335	0	0	-0.16996714	0.98544973
7.013272	53.637920	-47.433323	0	0	-0.82533563	0.56464246
-149.016418	63.260361	-77.024857	0	0	-0.16996714	0.98544973
6.438813	54.232712	-47.498093	0	0	-0.82533563	0.56464246
14.254272	49.984921	-43.977787	0	0	0	1
-148.472183	63.707981	-76.867149	0	0	-0.16996714	0.98544973
5.860322	54.823238	-47.563793	0	0	-0.82533563	0.56464246
-147.924606	64.152657	-76.709206	0	0	-0.16996714	0.98544973
5.277845	55.409462	-47.630421	0	0	-0.82533563	0.56464246
-147.373734	64.594368	-76.551048	0	0	-0.16996714	0.98544973
-146.819565	65.033073	-76.392670	0	0	-0.16996714	0.98544973
4.691407	55.991371	-47.697975	0	0	-0.82533563	0.56464246
-146.262100	65.468765	-76.234085	0	0	-0.16996714	0.98544973
4.101047	56.568924	-47.766457	0	0	-0.82533563	0.56464246
-145.701370	65.901405	-76.075302	0	0	-0.16996714	0.98544973
3.506805	57.142090	-47.835850	0	0	-0.82533563	0.56464246
-145.137390	66.330948	-75.916313	0	0	-0.16996714	0.98544973
2.908706	57.710854	-47.906166	0	0	-0.82533563	0.56464246
-144.570145	66.757408	-75.757133	0	0	-0.16996714	0.98544973
2.306799	58.275181	-47.977398	0	0	-0.82533563	0.56464246
-143.999680	67.180717	-75.597771	0	0	-0.16996714	0.98544973
-143.426010	67.600876	-75.438232	0	0	-0.16996714	0.98544973
1.701113	58.835045	-48.049541	0	0	-0.82533563	0.56464246
-142.849136	68.017830	-75.278526	0	0	-0.16996714	0.98544973
1.407592	59.218254	-48.196793	0	0	0	1
-142.269073	68.431587	-75.118652	0	0	-0.16996714	0.98544973
-141.685837	68.842087	-74.958618	0	0	-0.16996714	0.98544973
1.238971	59.531792	-48.373940	0	0	0	1
-141.099442	69.249321	-74.798424	0	0	-0.16996714	0.98544973
-140.509918	69.653259	-74.638092	0	0	-0.16996714	0.98544973
1.068474	59.845608	-48.551025	0	0	0	1
-139.917252	70.053871	-74.477623	0	0	-0.16996714	0.98544973
0.896095	60.159729	-48.728065	0	0	-0.82533563	0.56464246
-139.321487	70.451134	-74.317009	0	0	-0.16996714	0.98544973
-138.722641	70.845016	-74.156281	0	0	-0.16996714	0.98544973
0.721833	60.474182	-48.905075	0	0	-0.82533563	0.56464246
-138.120712	71.235489	-73.995415	0	0	-0.16996714	0.98544973
-137.515717	71.622536	-73.834450	0	0	-0.16996714	0.98544973
0.545663	60.788994	-49.082069	0	0	0	1
-136.907684	72.006119	-73.673370	0	0	-0.16996714	0.98544973
0.367570	61.104206	-49.259079	0	0	-0.82533563	0.56464246
-136.296631	72.386215	-73.512184	0	0	-0.16996714	0.98544973
-135.682571	72.762802	-73.350914	0	0	-0.16996714	0.98544973
0.187561	61.419842	-49.436108	0	0	0	1
-135.065521	73.135841	-73.189545	0	0	-0.16996714	0.98544973
-134.445511	73.505318	-73.028099	0	0	-0.16996714	0.98544973
0.005594	61.735947	-49.613190	0	0	0	1
-133.822540	73.871201	-72.866570	0	0	-0.16996714	0.98544973
-133.196640	74.233459	-72.704971	0	0	-0.16996714	0.98544973
-0.178332	62.052551	-49.790340	0	0	-0.82533563	0.56464246
-132.567825	74.592079	-72.543312	0	0	-0.16996714	0.98544973
-131.936111	74.947021	-72.381599	0	0	-0.16996714	0.98544973
-0.364237	62.369698	-49.967583	0	0	-0.82533563	0.56464246
-131.301529	75.298264	-72.219826	0	0	-0.26749883	0.96355818
-130.664093	75.645782	-72.058022	0	0	-0.26749883	0.96355818
-0.552132	62.687420	-50.144936	0	0	-0.82533563	0.56464246
-130.023834	75.989548	-71.896164	0	0	-0.26749883	0.96355818
-129.380753	76.329536	-71.734283	0	0	-0.26749883	0.96355818
-0.742049	63.005764	-50.322430	0	0	-0.82533563	0.56464246
-128.734863	76.665718	-71.572372	0	0	-0.26749883	0.96355818
-128.086212	76.998070	-71.410446	0	0	-0.26749883	0.96355818
-0.934011	63.324787	-50.500092	0	0	0	1
-127.434822	77.326569	-71.248505	0	0	-0.26749883	0.96355818
72.096161	-109.925034	-88.361076	0	0	0	1
-126.780685	77.651184	-71.086563	0	0	-0.26749883	0.96355818
-1.128040	63.644524	-50.677944	0	0	0	1
-126.123848	77.971893	-70.924614	0	0	-0.26749883	0.96355818
-125.464325	78.288673	-70.762672	0	0	-0.26749883	0.96355818
-1.324163	63.965034	-50.856022	0	0	0	1
-124.802139	78.601494	-70.600746	0	0	-0.26749883	0.96355818
-124.137314	78.910324	-70.438835	0	0	-0.26749883	0.96355818
-1.522400	64.286362	-51.034351	0	0	-0.82533563	0.56464246
-123.469864	79.215157	-70.276955	0	0	-0.26749883	0.96355818
-122.799828	79.515953	-70.115112	0	0	-0.26749883	0.96355818
-1.722787	64.608559	-51.212959	0	0	0	1
-122.127213	79.812691	-69.953300	0	0	-0.26749883	0.96355818
-121.452057	80.105339	-69.791527	0	0	-0.26749883	0.96355818
-1.925356	64.931694	-51.391884	0	0	0	1
-120.774368	80.393890	-69.629822	0	0	-0.26749883	0.96355818
-120.094185	80.678299	-69.468147	0	0	-0.26749883	0.96355818
-119.411530	80.958549	-69.306557	0	0	-0.26749883	0.96355818
-2.130149	65.255836	-51.571159	0	0	0	1
-118.726418	81.234627	-69.145035	0	0	-0.26749883	0.96355818
-118.038879	81.506493	-68.983589	0	0	-0.26749883	0.96355818
-2.337192	65.581024	-51.750816	0	0	-0.82533563	0.56464246
-117.348946	81.774139	-68.822235	0	0	-0.26749883	0.96355818
-116.656631	82.037521	-68.660950	0	0	-0.26749883	0.96355818
-2.546531	65.907349	-51.930901	0	0	0	1
-115.961967	82.296638	-68.499779	0	0	-0.26749883	0.96355818
-115.264984	82.551445	-68.338707	0	0	-0.26749883	0.96355818
-114.565704	82.801926	-68.177734	0	0	-0.26749883	0.96355818
-2.758202	66.234863	-52.111446	0	0	-0.82533563	0.56464246
-113.864151	83.048065	-68.016884	0	0	-0.26749883	0.96355818
-113.160355	83.289833	-67.856148	0	0	-0.26749883	0.96355818
-112.454346	83.527206	-67.695541	0	0	-0.26749883	0.96355818
-2.972273	66.563660	-52.292500	0	0	-0.82533563	0.56464246
-111.746140	83.760162	-67.535072	0	0	-0.26749883	0.96355818
-111.035774	83.988678	-67.374741	0	0	-0.26749883	0.96355818
-3.188776	66.893814	-52.474102	0	0	-0.82533563	0.56464246
-110.323280	84.212738	-67.214561	0	0	-0.26749883	0.96355818
-109.608673	84.432320	-67.054543	0	0	-0.26749883	0.96355818
-108.891991	84.647385	-66.894669	0	0	-0.26749883	0.96355818
-3.407763	67.225395	-52.656292	0	0	0	1
-108.173256	84.857925	-66.734962	0	0	-0.26749883	0.96355818
-107.452499	85.063919	-66.575424	0	0	-0.26749883	0.96355818
-106.729759	85.265343	-66.416077	0	0	-0.26749883	0.96355818
-3.629313	67.558510	-52.839134	0	0	0	1
-106.005051	85.462166	-66.256897	0	0	-0.26749883	0.96355818
-105.278412	85.654381	-66.097923	0	0	-0.26749883	0.96355818
-104.549866	85.841965	-65.939140	0	0	-0.36235775	0.93203909
-103.819450	86.024895	-65.780556	0	0	-0.36235775	0.93203909
-3.853467	67.893242	-53.022667	0	0	0	1
-103.087196	86.203140	-65.622192	0	0	-0.36235775	0.93203909
-102.353127	86.376701	-65.464043	0	0	-0.36235775	0.93203909
-101.617271	86.545540	-65.306114	0	0	-0.36235775	0.93203909
-4.080311	68.229691	-53.206947	0	0	-0.82533563	0.56464246
-100.879669	86.709641	-65.148407	0	0	-0.36235775	0.93203909
-100.140350	86.868988	-64.990936	0	0	-0.36235775	0.93203909
-99.399345	87.023560	-64.833710	0	0	-0.36235775	0.93203909
-98.656677	87.173332	-64.676720	0	0	-0.36235775	0.93203909
-4.309900	68.567955	-53.392029	0	0	0	1
-97.912392	87.318298	-64.520004	0	0	-0.36235775	0.93203909
-97.166512	87.458427	-64.363525	0	0	-0.36235775	0.93203909
-96.419067	87.593704	-64.207329	0	0	-0.36235775	0.93203909
-95.670097	87.724121	-64.051399	0	0	-0.36235775	0.93203909
-4.542332	68.908157	-53.577972	0	0	-0.82533563	0.56464246
-94.919640	87.849640	-63.895744	0	0	-0.36235775	0.93203909
-94.167717	87.970253	-63.740376	0	0	-0.36235775	0.93203909
-93.414368	88.085953	-63.585297	0	0	-0.36235775	0.93203909
-92.659622	88.196701	-63.430515	0	0	-0.36235775	0.93203909
-91.903519	88.302498	-63.276035	0	0	-0.36235775	0.93203909
-4.777688	69.250404	-53.764843	0	0	0	1
-91.146088	88.403313	-63.121861	0	0	-0.36235775	0.93203909
-90.387360	88.499138	-62.968002	0	0	-0.36235775	0.93203909
-89.627380	88.589958	-62.814468	0	0	-0.36235775	0.93203909
-88.866173	88.675743	-62.661251	0	0	-0.36235775	0.93203909
-88.103775	88.756500	-62.508373	0	0	-0.36235775	0.93203909
-87.340225	88.832199	-62.355843	0	0	-0.36235775	0.93203909
-5.016066	69.594818	-53.952705	0	0	0	1
-86.575562	88.902817	-62.203640	0	0	-0.36235775	0.93203909
-85.809807	88.968361	-62.051804	0	0	-0.36235775	0.93203909
-85.043007	89.028793	-61.900318	0	0	-0.36235775	0.93203909
-84.275200	89.084114	-61.749195	0	0	-0.36235775	0.93203909
-83.506409	89.134300	-61.598438	0	0	-0.36235775	0.93203909
-82.736687	89.179344	-61.448059	0	0	-0.36235775	0.93203909
-81.966057	89.219231	-61.298054	0	0	-0.36235775	0.93203909
-81.194557	89.253944	-61.148441	0	0	-0.36235775	0.93203909
-5.257559	69.941536	-54.141628	0	0	0	1
-80.422226	89.283470	-60.999222	0	0	-0.36235775	0.93203909
-79.649109	89.307800	-60.850399	0	0	-0.45359611	0.89120736
-78.875229	89.326912	-60.701981	0	0	-0.45359611	0.89120736
-78.100632	89.340813	-60.553978	0	0	-0.45359611	0.89120736
-77.325356	89.349464	-60.406380	0	0	-0.45359611	0.89120736
-76.549431	89.352882	-60.259212	0	0	-0.45359611	0.89120736
-75.772896	89.351028	-60.112473	0	0	-0.45359611	0.89120736
-74.995804	89.343918	-59.966164	0	0	-0.45359611	0.89120736
-74.218170	89.331512	-59.820286	0	0	-0.45359611	0.89120736
-73.440048	89.313820	-59.674858	0	0	-0.45359611	0.89120736
-72.661476	89.290825	-59.529884	0	0	-0.45359611	0.89120736
-71.882484	89.262520	-59.385365	0	0	-0.45359611	0.89120736
-71.103119	89.228889	-59.241314	0	0	-0.45359611	0.89120736
-70.323418	89.189934	-59.097729	0	0	-0.45359611	0.89120736
-69.543411	89.145638	-58.954613	0	0	-0.45359611	0.89120736
-67.202003	88.980606	-58.528156	0	0	-0.45359611	0.89120736
-68.763153	89.095993	-58.811981	0	0	-0.45359611	0.89120736
-67.982666	89.040985	-58.669827	0	0	-0.45359611	0.89120736
-5.502276	70.290680	-54.331684	0	0	-0.82533563	0.56464246
-5.750339	70.642403	-54.522949	0	0	0	1
-66.226463	89.278046	-58.664433	0	0	-0.45359611	0.89120736
-6.001886	70.996864	-54.715504	0	0	-0.82533563	0.56464246
-6.257040	71.354218	-54.909435	0	0	-0.82533563	0.56464246
-6.515960	71.714645	-55.104828	0	0	0	1
-6.778824	72.078323	-55.301788	0	0	-0.82533563	0.56464246
19.868093	57.603893	-49.511887	0	0	0	1
-7.045787	72.445442	-55.500401	0	0	0	1
-7.317075	72.816216	-55.700787	0	0	0	1
-7.592877	73.190865	-55.903049	0	0	0	1
-7.873441	73.569611	-56.107307	0	0	-0.76484218	0.64421769
-8.159026	73.952713	-56.313686	0	0	-0.76484218	0.64421769
-8.449900	74.340431	-56.522312	0	0	0	1
-8.746369	74.733032	-56.733330	0	0	-0.76484218	0.64421769
-9.048791	75.130844	-56.946888	0	0	-0.76484218	0.64421769
-9.357533	75.534164	-57.163132	0	0	-0.76484218	0.64421769
-9.672956	75.943314	-57.382221	0	0	-0.76484218	0.64421769
-63.469044	92.038422	-60.761044	0	0	-0.45359611	0.89120736
-9.995585	76.358696	-57.604343	0	0	0	1
-10.325858	76.780655	-57.829662	0	0	-0.76484218	0.64421769
-10.664357	77.209618	-58.058376	0	0	-0.76484218	0.64421769
-11.011669	77.646011	-58.290672	0	0	0	1
-11.368489	78.090309	-58.526775	0	0	0	1
-11.735546	78.542984	-58.766884	0	0	0	1
-12.113674	79.004578	-59.011234	0	0	-0.76484218	0.64421769
-12.503834	79.475647	-59.260063	0	0	0	1
-12.907036	79.956772	-59.513607	0	0	-0.76484218	0.64421769
-13.324438	80.448570	-59.772114	0	0	-0.76484218	0.64421769
-60.309597	94.233749	-62.550842	0	0	-0.54030229	0.84147099
-13.757387	80.951736	-60.035839	0	0	-0.76484218	0.64421769
-14.207266	81.466911	-60.305031	0	0	0	1
-14.675809	81.994865	-60.579948	0	0	0	1
-15.164858	82.536362	-60.860844	0	0	-0.76484218	0.64421769
-15.676427	83.092140	-61.147930	0	0	0	1
-16.213037	83.663071	-61.441437	0	0	-0.76484218	0.64421769
-16.777231	84.249916	-61.741528	0	0	-0.76484218	0.64421769
-56.934372	95.861404	-64.008568	0	0	0	1
-17.372234	84.853546	-62.048340	0	0	0	1
-18.001400	85.474709	-62.361931	0	0	0	1
-18.668776	86.114174	-62.682270	0	0	0	1
-19.378860	86.772591	-63.009201	0	0	0	1
-20.136946	87.450500	-63.342396	0	0	-0.76484218	0.64421769
-53.502804	96.962326	-65.139977	0	0	-0.54030229	0.84147099
-20.948797	88.148170	-63.681293	0	0	0	1
-21.821415	88.865662	-64.025047	0	0	-0.76484218	0.64421769
-22.762407	89.602524	-64.372406	0	0	-0.76484218	0.64421769
-50.137260	97.603226	-65.971794	0	0	-0.62160997	0.7833269
-23.780718	90.357765	-64.721611	0	0	0	1
-24.886471	91.129547	-65.070221	0	0	0	1
-26.091221	91.914948	-65.414917	0	0	-0.69670669	0.71735611
-46.921345	97.861664	-66.542534	0	0	0	1
-27.407839	92.709526	-65.751259	0	0	0	1
27.156460	67.495529	-56.696747	0	0	0	1
-28.850992	93.506844	-66.073318	0	0	0	1
-43.906036	97.814240	-66.894257	0	0	-0.62160997	0.7833269
-30.436497	94.297791	-66.373322	0	0	0	1
-41.115921	97.530724	-67.067993	0	0	0	1
-32.181870	95.069778	-66.641083	0	0	0	1
-34.105263	95.805702	-66.863480	0	0	0	1
-38.557415	97.070610	-67.100616	0	0	-0.62160997	0.7833269
-36.224831	96.482681	-67.023720	0	0	0	1
98.871948	-129.962021	-111.768333	0	0	0	1
38.070621	82.308029	-67.455910	0	0	-0.76484218	0.64421769
54.242752	104.256538	-83.398369	0	0	0	1
141.721039	-162.014847	-149.227432	0	0	0	1
79.010216	137.870483	-107.814102	0	0	0	1
121.710793	195.822906	-149.908264	0	0	0	1
221.327377	-221.546234	-218.821014	0	0	0	1
212.880127	319.556213	-239.782852	0	0	0	1
420.504486	-370.464966	-392.947540	0	0	0	1
-70.216700	-104.264000	6.564090	0.000000	0.000000	0.856889	0.515500
