-84.642220	-123.592003	-114.497841	0	0	0	1
-62.099895	-86.643608	-84.202072	0	0	0	1
-63.126514	-87.071594	-84.849091	0	0	0	1
-64.159302	-87.487968	-85.494499	0	0	0	1
-65.198135	-87.892662	-86.138283	0	0	0	1
-66.242851	-88.285583	-86.780403	0	0	0	1
-67.293327	-88.666664	-87.420845	0	0	0	1
-68.349403	-89.035812	-88.059578	0	0	0	1
-69.410950	-89.392960	-88.696571	0	0	0	1
-70.477829	-89.738045	-89.331818	0	0	0	1
-71.549896	-90.070976	-89.965279	0	0	0	1
-72.626991	-90.391693	-90.596916	0	0	0	1
-73.708977	-90.700134	-91.226730	0	0	0	1
-74.795715	-90.996223	-91.854691	0	0	0	1
-75.887047	-91.279892	-92.480766	0	0	0	1
-76.982826	-91.551094	-93.104927	0	0	0	1
-78.082901	-91.809746	-93.727165	0	0	0	1
-79.187134	-92.055809	-94.347435	0	0	0	1
-80.298149	-92.292702	-94.959335	0	0	0	1
-81.413834	-92.517799	-95.567497	0	0	0	1
-82.533302	-92.730125	-96.173569	0	0	0	1
-83.656380	-92.929611	-96.777519	0	0	0	1
-84.782936	-93.116226	-97.379326	0	0	0	1
-85.912804	-93.289909	-97.978981	0	0	0	1
-87.045837	-93.450615	-98.576439	0	0	0.41614682	0.90929743
-88.181877	-93.598297	-99.171692	0	0	0.41614682	0.90929743
-89.320763	-93.732910	-99.764709	0	0	0.41614682	0.90929743
-90.462349	-93.854424	-100.355484	0	0	0.41614682	0.90929743
-91.606461	-93.962784	-100.943962	0	0	0	1
-92.752960	-94.057961	-101.530144	0	0	0	1
-94.120293	-94.374191	-101.656364	0	0	0.41614682	0.90929743
-95.552193	-94.737457	-101.656364	0	0	0.41614682	0.90929743
-96.988548	-95.082695	-101.656364	0	0	0.41614682	0.90929743
-98.429115	-95.409851	-101.656364	0	0	0.50484609	0.86320938
-99.873695	-95.718887	-101.656364	0	0	0.50484609	0.86320938
-101.322037	-96.009750	-101.656364	0	0	0.50484609	0.86320938
-102.773918	-96.282379	-101.656364	0	0	0.50484609	0.86320938
-104.229118	-96.536751	-101.656364	0	0	0.50484609	0.86320938
-105.687401	-96.772812	-101.656364	0	0	0.50484609	0.86320938
-107.148521	-96.990532	-101.656364	0	0	0.50484609	0.86320938
-108.612267	-97.189873	-101.656364	0	0	0.50484609	0.86320938
-110.078407	-97.370804	-101.656364	0	0	0.50484609	0.86320938
-111.546700	-97.533295	-101.656364	0	0	0.50484609	0.86320938
-113.016937	-97.677330	-101.656364	0	0	0.50484609	0.86320938
-114.488838	-97.802872	-101.656364	0	0	0.50484609	0.86320938
-115.962227	-97.909912	-101.656364	0	0	0.50484609	0.86320938
-117.436829	-97.998428	-101.656364	0	0	0.50484609	0.86320938
-118.912437	-98.068405	-101.656364	0	0	0.50484609	0.86320938
-120.388794	-98.119835	-101.656364	0	0	0.58850112	0.8084964
-121.865685	-98.152710	-101.656364	0	0	0.58850112	0.8084964
-123.342880	-98.167023	-101.656364	0	0	0.58850112	0.8084964
-124.820129	-98.162773	-101.656364	0	0	0.58850112	0.8084964
-126.297218	-98.139961	-101.656364	0	0	0.58850112	0.8084964
-127.773903	-98.098587	-101.656364	0	0	0.58850112	0.8084964
-129.249939	-98.038658	-101.656364	0	0	0.58850112	0.8084964
-130.725113	-97.960190	-101.656364	0	0	0.58850112	0.8084964
-132.199173	-97.863190	-101.656364	0	0	0.58850112	0.8084964
-133.671921	-97.747681	-101.656364	0	0	0.58850112	0.8084964
-135.143082	-97.613663	-101.656364	0	0	0.58850112	0.8084964
-136.612473	-97.461174	-101.656364	0	0	0.58850112	0.8084964
-138.079803	-97.290237	-101.656364	0	0	0.58850112	0.8084964
-139.544861	-97.100868	-101.656364	0	0	0.58850112	0.8084964
-141.007446	-96.893105	-101.656364	0	0	0.58850112	0.8084964
-142.467300	-96.666985	-101.656364	0	0	0.58850112	0.8084964
-143.924194	-96.422531	-101.656364	0	0	0.58850112	0.8084964
-145.377899	-96.159798	-101.656364	0	0	0.58850112	0.8084964
-146.828186	-95.878807	-101.656364	0	0	0.58850112	0.8084964
-148.274841	-95.579620	-101.656364	0	0	0.58850112	0.8084964
-149.717621	-95.262276	-101.656364	0	0	0.58850112	0.8084964
-151.156281	-94.926834	-101.656364	0	0	0.58850112	0.8084964
-152.590622	-94.573334	-101.656364	0	0	0.58850112	0.8084964
-154.020416	-94.201836	-101.656364	0	0	0.58850112	0.8084964
-155.445419	-93.812408	-101.656364	0	0	0.58850112	0.8084964
-156.865417	-93.405098	-101.656364	0	0	0.58850112	0.8084964
-158.280182	-92.979973	-101.656364	0	0	0.58850112	0.8084964
-159.689499	-92.537109	-101.656364	0	0	0.58850112	0.8084964
-161.093140	-92.076569	-101.656364	0	0	0.58850112	0.8084964
-162.490875	-91.598434	-101.656364	0	0	0.58850112	0.8084964
-163.882507	-91.102760	-101.656364	0	0	0.58850112	0.8084964
-165.267776	-90.589653	-101.656364	0	0	0.58850112	0.8084964
-166.646515	-90.059166	-101.656364	0	0	0.58850112	0.8084964
-168.018463	-89.511398	-101.656364	0	0	0.58850112	0.8084964
-169.383423	-88.946442	-101.656364	0	0	0.58850112	0.8084964
-170.741165	-88.364372	-101.656364	0	0	0.58850112	0.8084964
-172.091507	-87.765282	-101.656364	0	0	0.58850112	0.8084964
-173.434204	-87.149277	-101.656364	0	0	0.58850112	0.8084964
-174.769058	-86.516441	-101.656364	0	0	0.58850112	0.8084964
-176.095840	-85.866890	-101.656364	0	0	0.58850112	0.8084964
-177.414368	-85.200714	-101.656364	0	0	0.58850112	0.8084964
-178.724411	-84.518028	-101.656364	0	0	0.58850112	0.8084964
-180.025787	-83.818924	-101.656364	0	0	0.50484609	0.86320938
-181.318268	-83.103531	-101.656364	0	0	0.50484609	0.86320938
-182.601654	-82.371948	-101.656364	0	0	0.50484609	0.86320938
-183.875748	-81.624298	-101.656364	0	0	0.50484609	0.86320938
-185.140350	-80.860695	-101.656364	0	0	0.50484609	0.86320938
-186.395248	-80.081261	-101.656364	0	0	0.50484609	0.86320938
-187.640259	-79.286118	-101.656364	0	0	0.50484609	0.86320938
-188.875168	-78.475395	-101.656364	0	0	0.50484609	0.86320938
-190.099808	-77.649216	-101.656364	0	0	0.50484609	0.86320938
-191.313965	-76.807716	-101.656364	0	0	0.50484609	0.86320938
-192.517441	-75.951027	-101.656364	0	0	0.50484609	0.86320938
-193.710068	-75.079277	-101.656364	0	0	0.50484609	0.86320938
-194.891647	-74.192612	-101.656364	0	0	0.50484609	0.86320938
-196.061996	-73.291168	-101.656364	0	0	0.50484609	0.86320938
-197.220917	-72.375092	-101.656364	0	0	0.50484609	0.86320938
-198.368225	-71.444527	-101.656364	0	0	0.50484609	0.86320938
-199.503769	-70.499611	-101.656364	0	0	0.50484609	0.86320938
-200.627335	-69.540504	-101.656364	0	0	0.50484609	0.86320938
-201.738770	-68.567360	-101.656364	0	0	0.50484609	0.86320938
-202.837875	-67.580322	-101.656364	0	0	0.50484609	0.86320938
-203.924500	-66.579544	-101.656364	0	0	0.50484609	0.86320938
-204.998459	-65.565201	-101.656364	0	0	0.50484609	0.86320938
-206.059601	-64.537437	-101.656364	0	0	0.50484609	0.86320938
-207.107727	-63.496414	-101.656364	0	0	0.50484609	0.86320938
-208.142700	-62.442310	-101.656364	0	0	0.50484609	0.86320938
-209.164337	-61.375278	-101.656364	0	0	0.50484609	0.86320938
-210.172485	-60.295498	-101.656364	0	0	0.50484609	0.86320938
-211.166992	-59.203136	-101.656364	0	0	0.50484609	0.86320938
-212.147690	-58.098358	-101.656364	0	0	0.50484609	0.86320938
-213.114426	-56.981342	-101.656364	0	0	0.50484609	0.86320938
-214.067047	-55.852276	-101.656364	0	0	0.50484609	0.86320938
-215.005417	-54.711327	-101.656364	0	0	0.50484609	0.86320938
-215.929367	-53.558666	-101.656364	0	0	0.50484609	0.86320938
-216.838760	-52.394493	-101.656364	0	0	0.50484609	0.86320938
-217.733444	-51.218987	-101.656364	0	0	0.50484609	0.86320938
-218.613297	-50.032326	-101.656364	0	0	0.41614682	0.90929743
-219.478165	-48.834705	-101.656364	0	0	0.41614682	0.90929743
-220.327927	-47.626308	-101.656364	0	0	0.41614682	0.90929743
-221.162430	-46.407330	-101.656364	0	0	0.41614682	0.90929743
-221.981537	-45.177963	-101.656364	0	0	0.41614682	0.90929743
-222.785141	-43.938396	-101.656364	0	0	0.41614682	0.90929743
-223.573105	-42.688835	-101.656364	0	0	0.41614682	0.90929743
-224.345306	-41.429466	-101.656364	0	0	0.41614682	0.90929743
-225.101624	-40.160496	-101.656364	0	0	0.41614682	0.90929743
-225.841919	-38.882122	-101.656364	0	0	0.41614682	0.90929743
-226.566116	-37.594543	-101.656364	0	0	0.41614682	0.90929743
-227.274063	-36.297970	-101.656364	0	0	0.41614682	0.90929743
-227.965652	-34.992599	-101.656364	0	0	0.41614682	0.90929743
-228.640793	-33.678642	-101.656364	0	0	0.41614682	0.90929743
-229.299377	-32.356304	-101.656364	0	0	0.41614682	0.90929743
-229.941284	-31.025795	-101.656364	0	0	0.41614682	0.90929743
-230.566422	-29.687328	-101.656364	0	0	0.41614682	0.90929743
-231.174683	-28.341108	-101.656364	0	0	0.41614682	0.90929743
-231.765991	-26.987352	-101.656364	0	0	0.41614682	0.90929743
-232.340240	-25.626274	-101.656364	0	0	0.41614682	0.90929743
-232.897339	-24.258083	-101.656364	0	0	0.41614682	0.90929743
-233.437195	-22.883003	-101.656364	0	0	0.41614682	0.90929743
-233.959747	-21.501247	-101.656364	0	0	0.41614682	0.90929743
-234.464874	-20.113035	-101.656364	0	0	0.41614682	0.90929743
-234.952530	-18.718582	-101.656364	0	0	0.41614682	0.90929743
-235.422607	-17.318113	-101.656364	0	0	0.41614682	0.90929743
-235.875076	-15.911848	-101.656364	0	0	0.41614682	0.90929743
-236.309814	-14.500008	-101.656364	0	0	0.41614682	0.90929743
-236.726791	-13.082817	-101.656364	0	0	0.41614682	0.90929743
-237.125916	-11.660498	-101.656364	0	0	0.41614682	0.90929743
-237.507141	-10.233274	-101.656364	0	0	0.41614682	0.90929743
-237.870407	-8.801374	-101.656364	0	0	0.41614682	0.90929743
-238.215637	-7.365022	-101.656364	0	0	0.41614682	0.90929743
-238.542801	-5.924446	-101.656364	0	0	0.41614682	0.90929743
-238.851837	-4.479871	-101.656364	0	0	0.32328956	0.94630009
-239.142700	-3.031527	-101.656364	0	0	0.32328956	0.94630009
-239.415329	-1.579643	-101.656364	0	0	0.32328956	0.94630009
-239.669708	-0.124448	-101.656364	0	0	0.32328956	0.94630009
-239.905762	1.333830	-101.656364	0	0	0.32328956	0.94630009
-240.123489	2.794958	-101.656364	0	0	0.32328956	0.94630009
-240.322830	4.258707	-101.656364	0	0	0.32328956	0.94630009
-240.503754	5.724845	-101.656364	0	0	0.32328956	0.94630009
-240.666245	7.193141	-101.656364	0	0	0.32328956	0.94630009
-240.810287	8.663363	-101.656364	0	0	0.32328956	0.94630009
-240.935822	10.135279	-101.656364	0	0	0.32328956	0.94630009
-241.042862	11.608655	-101.656364	0	0	0.32328956	0.94630009
-241.131378	13.083261	-101.656364	0	0	0.32328956	0.94630009
-241.201355	14.558864	-101.656364	0	0	0.32328956	0.94630009
-241.252792	16.035229	-101.656364	0	0	0.32328956	0.94630009
-241.285660	17.512121	-101.656364	0	0	0.32328956	0.94630009
-241.299973	18.989313	-101.656364	0	0	0.32328956	0.94630009
-241.295731	20.466566	-101.656364	0	0	0.32328956	0.94630009
-241.272903	21.943651	-101.656364	0	0	0.32328956	0.94630009
-241.231537	23.420332	-101.656364	0	0	0.32328956	0.94630009
-241.171616	24.896376	-101.656364	0	0	0.32328956	0.94630009
-241.093140	26.371552	-101.656364	0	0	0.32328956	0.94630009
-240.996140	27.845621	-101.656364	0	0	0.32328956	0.94630009
-240.880630	29.318359	-101.656364	0	0	0.32328956	0.94630009
-240.746613	30.789528	-101.656364	0	0	0.32328956	0.94630009
-240.594131	32.258896	-101.656364	0	0	0.32328956	0.94630009
-240.423187	33.726234	-101.656364	0	0	0.32328956	0.94630009
-240.233826	35.191303	-101.656364	0	0	0.32328956	0.94630009
-240.026062	36.653885	-101.656364	0	0	0.32328956	0.94630009
-239.799927	38.113735	-101.656364	0	0	0.32328956	0.94630009
-239.555481	39.570629	-101.656364	0	0	0.32328956	0.94630009
-239.292740	41.024338	-101.656364	0	0	0.32328956	0.94630009
-239.281296	41.085400	-101.656364	0	0	0.32328956	0.94630009
-239.333817	41.215672	-101.455765	0	0	0.32328956	0.94630009
-239.484177	41.597824	-100.869278	0	0	0.32328956	0.94630009
-239.630310	41.983356	-100.280487	0	0	0.32328956	0.94630009
-239.772171	42.372219	-99.689423	0	0	0.32328956	0.94630009
-239.909698	42.764370	-99.096100	0	0	0.32328956	0.94630009
-240.042862	43.159744	-98.500549	0	0	0.32328956	0.94630009
-240.171600	43.558300	-97.902786	0	0	0.32328956	0.94630009
-240.295853	43.959980	-97.302849	0	0	0.32328956	0.94630009
-240.415588	44.364731	-96.700745	0	0	0.32328956	0.94630009
-240.530746	44.772503	-96.096512	0	0	0.22720209	0.97384763
-240.641296	45.183239	-95.490158	0	0	0.22720209	0.97384763
-240.747162	45.596886	-94.881721	0	0	0.22720209	0.97384763
-240.848328	46.013386	-94.271217	0	0	0.22720209	0.97384763
-240.944748	46.432682	-93.658676	0	0	0.22720209	0.97384763
-241.036346	46.854721	-93.044113	0	0	0.22720209	0.97384763
-241.123108	47.279438	-92.427567	0	0	0.22720209	0.97384763
-241.204987	47.706783	-91.809044	0	0	0.22720209	0.97384763
-241.281921	48.136692	-91.188583	0	0	0.22720209	0.97384763
-241.353897	48.569111	-90.566208	0	0	0.22720209	0.97384763
-241.420853	49.003971	-89.941940	0	0	0.22720209	0.97384763
-241.482758	49.441219	-89.315796	0	0	0.22720209	0.97384763
-241.539566	49.880795	-88.687805	0	0	0.22720209	0.97384763
-241.591248	50.322628	-88.058006	0	0	0.22720209	0.97384763
-241.637756	50.766670	-87.426399	0	0	0.22720209	0.97384763
-241.679062	51.212845	-86.793030	0	0	0.22720209	0.97384763
-241.715118	51.661095	-86.157913	0	0	0.22720209	0.97384763
-241.745895	52.111355	-85.521072	0	0	0.22720209	0.97384763
-241.771347	52.563564	-84.882545	0	0	0.22720209	0.97384763
-241.791473	53.017654	-84.242348	0	0	0.22720209	0.97384763
-241.806198	53.473560	-83.600502	0	0	0.22720209	0.97384763
-241.815521	53.931217	-82.957047	0	0	0.22720209	0.97384763
-241.819397	54.390560	-82.311989	0	0	0.22720209	0.97384763
-241.817780	54.851521	-81.665359	0	0	0.22720209	0.97384763
-241.810684	55.314030	-81.017197	0	0	0.22720209	0.97384763
-241.798035	55.778027	-80.367508	0	0	0.22720209	0.97384763
-241.779816	56.243435	-79.716331	0	0	0.22720209	0.97384763
-241.756027	56.710190	-79.063698	0	0	0.22720209	0.97384763
-241.726593	57.178226	-78.409615	0	0	0.22720209	0.97384763
-241.691544	57.647469	-77.754120	0	0	0.22720209	0.97384763
-241.650803	58.117855	-77.097237	0	0	0.22720209	0.97384763
-241.604385	58.589306	-76.438995	0	0	0.22720209	0.97384763
-241.552231	59.061760	-75.779411	0	0	0.22720209	0.97384763
-241.494354	59.535141	-75.118523	0	0	0.22720209	0.97384763
-241.430725	60.009377	-74.456345	0	0	0.22720209	0.97384763
-241.361298	60.484402	-73.792915	0	0	0.22720209	0.97384763
-241.286087	60.960140	-73.128250	0	0	0.22720209	0.97384763
-241.205048	61.436523	-72.462379	0	0	0.22720209	0.97384763
-241.118164	61.913475	-71.795334	0	0	0.22720209	0.97384763
-241.025436	62.390926	-71.127136	0	0	0.22720209	0.97384763
-240.926849	62.868801	-70.457809	0	0	0.22720209	0.97384763
-240.822357	63.347027	-69.787376	0	0	0.22720209	0.97384763
-240.711990	63.825531	-69.115875	0	0	0.22720209	0.97384763
-240.595688	64.304245	-68.443329	0	0	0.22720209	0.97384763
-240.473480	64.783089	-67.769760	0	0	0.22720209	0.97384763
-240.345322	65.261986	-67.095200	0	0	0.22720209	0.97384763
-240.211227	65.740868	-66.419662	0	0	0.22720209	0.97384763
-240.071167	66.219666	-65.743195	0	0	0.22720209	0.97384763
-239.925156	66.698288	-65.065811	0	0	0.22720209	0.97384763
-239.773163	67.176674	-64.387543	0	0	0.22720209	0.97384763
-239.615189	67.654747	-63.708408	0	0	0.22720209	0.97384763
-239.451233	68.132423	-63.028446	0	0	0.22720209	0.97384763
-239.281296	68.609642	-62.347672	0	0	0.22720209	0.97384763
-239.105362	69.086319	-61.666119	0	0	0.22720209	0.97384763
-238.923431	69.562378	-60.983814	0	0	0.22720209	0.97384763
-238.735489	70.037743	-60.300781	0	0	0.22720209	0.97384763
-238.541565	70.512344	-59.617054	0	0	0.22720209	0.97384763
-238.341629	70.986107	-58.932652	0	0	0.22720209	0.97384763
-238.135696	71.458946	-58.247604	0	0	0.22720209	0.97384763
-237.923767	71.930786	-57.561943	0	0	0.22720209	0.97384763
-237.705841	72.401566	-56.875679	0	0	0.22720209	0.97384763
-237.481934	72.871193	-56.188866	0	0	0.22720209	0.97384763
-237.252029	73.339607	-55.501507	0	0	0.22720209	0.97384763
-237.016159	73.806717	-54.813641	0	0	0.22720209	0.97384763
-236.774292	74.272453	-54.125294	0	0	0.22720209	0.97384763
-236.526474	74.736748	-53.436489	0	0	0.22720209	0.97384763
-236.272705	75.199516	-52.747257	0	0	0.22720209	0.97384763
-236.012970	75.660683	-52.057625	0	0	0.22720209	0.97384763
-235.747299	76.120171	-51.367619	0	0	0.22720209	0.97384763
-235.475708	76.577911	-50.677265	0	0	0.22720209	0.97384763
-235.198196	77.033821	-49.986595	0	0	0.22720209	0.97384763
-234.914795	77.487831	-49.295631	0	0	0.22720209	0.97384763
-234.625488	77.939865	-48.604404	0	0	0.22720209	0.97384763
-234.330322	78.389839	-47.912941	0	0	0.22720209	0.97384763
-234.029297	78.837692	-47.221264	0	0	0.22720209	0.97384763
-233.722443	79.283348	-46.529408	0	0	0.22720209	0.97384763
-233.409744	79.726715	-45.837391	0	0	0.22720209	0.97384763
-233.091263	80.167740	-45.145248	0	0	0.22720209	0.97384763
-232.766998	80.606339	-44.453007	0	0	0.22720209	0.97384763
-232.436966	81.042427	-43.760693	0	0	0.22720209	0.97384763
-232.101181	81.475952	-43.068333	0	0	0.22720209	0.97384763
-231.759705	81.906822	-42.375957	0	0	0.22720209	0.97384763
-231.412521	82.334976	-41.683582	0	0	0.22720209	0.97384763
-231.059662	82.760330	-40.991249	0	0	0.22720209	0.97384763
-230.701172	83.182823	-40.298977	0	0	0.22720209	0.97384763
-230.337067	83.602371	-39.606792	0	0	0.22720209	0.97384763
-229.967361	84.018906	-38.914734	0	0	0.22720209	0.97384763
-229.592102	84.432350	-38.222809	0	0	0.22720209	0.97384763
-229.211304	84.842644	-37.531063	0	0	0.22720209	0.97384763
-228.825012	85.249710	-36.839516	0	0	0.22720209	0.97384763
-228.433243	85.653473	-36.148197	0	0	0.22720209	0.97384763
-228.036041	86.053871	-35.457138	0	0	0.22720209	0.97384763
-227.633438	86.450821	-34.766354	0	0	0.22720209	0.97384763
-227.225449	86.844261	-34.075882	0	0	0.22720209	0.97384763
-226.812134	87.234123	-33.385746	0	0	0.22720209	0.97384763
-226.393509	87.620323	-32.695969	0	0	0.22720209	0.97384763
-225.969620	88.002815	-32.006584	0	0	0.22720209	0.97384763
-225.540512	88.381508	-31.317621	0	0	0.22720209	0.97384763
-225.106201	88.756355	-30.629101	0	0	0.22720209	0.97384763
-224.666748	89.127266	-29.941055	0	0	0.22720209	0.97384763
-224.222168	89.494194	-29.253510	0	0	0.22720209	0.97384763
-223.772537	89.857056	-28.566483	0	0	0.22720209	0.97384763
-223.317856	90.215797	-27.880018	0	0	0.22720209	0.97384763
-222.858215	90.570335	-27.194132	0	0	0.22720209	0.97384763
-222.393616	90.920624	-26.508854	0	0	0.22720209	0.97384763
-221.924118	91.266594	-25.824209	0	0	0.22720209	0.97384763
-221.449768	91.608170	-25.140230	0	0	0.22720209	0.97384763
-220.970612	91.945290	-24.456934	0	0	0.22720209	0.97384763
-220.486694	92.277901	-23.774363	0	0	0.22720209	0.97384763
-219.998062	92.605934	-23.092524	0	0	0.22720209	0.97384763
-219.504761	92.929329	-22.411461	0	0	0.22720209	0.97384763
-219.006851	93.248016	-21.731197	0	0	0.22720209	0.97384763
-218.504364	93.561943	-21.051756	0	0	0.22720209	0.97384763
-217.997360	93.871040	-20.373159	0	0	0.22720209	0.97384763
-217.485901	94.175262	-19.695448	0	0	0.22720209	0.97384763
-216.970032	94.474525	-19.018633	0	0	0.22720209	0.97384763
-216.449799	94.768799	-18.342756	0	0	0.22720209	0.97384763
-215.925262	95.057999	-17.667828	0	0	0.22720209	0.97384763
-215.396484	95.342087	-16.993889	0	0	0.22720209	0.97384763
-214.863495	95.620995	-16.320967	0	0	0.22720209	0.97384763
-214.326370	95.894669	-15.649071	0	0	0.22720209	0.97384763
-213.785172	96.163055	-14.978246	0	0	0.22720209	0.97384763
-213.239944	96.426094	-14.308508	0	0	0.22720209	0.97384763
-212.348953	97.398376	-14.194569	0	0	0.22720209	0.97384763
-211.372742	98.509773	-14.197688	0	0	0.22720209	0.97384763
-210.382629	99.608826	-14.200791	0	0	0.22720209	0.97384763
-209.378784	100.695351	-14.203874	0	0	0.22720209	0.97384763
-208.361359	101.769196	-14.206956	0	0	0.22720209	0.97384763
-207.330521	102.830170	-14.210010	0	0	0.22720209	0.97384763
-206.286423	103.878113	-14.213043	0	0	0.22720209	0.97384763
-205.229233	104.912857	-14.216053	0	0	0.22720209	0.97384763
-204.159134	105.934242	-14.219067	0	0	0.22720209	0.97384763
-203.076263	106.942108	-14.222047	0	0	0.22720209	0.97384763
-201.980820	107.936295	-14.225011	0	0	0.22720209	0.97384763
-200.872955	108.916649	-14.227961	0	0	0.22720209	0.97384763
-199.752869	109.883003	-14.230893	0	0	0.22720209	0.97384763
-198.620712	110.835220	-14.233806	0	0	0.22720209	0.97384763
-197.476685	111.773132	-14.236699	0	0	0.1288445	0.99166481
-196.320953	112.696617	-14.239581	0	0	0.1288445	0.99166481
-195.153702	113.605492	-14.242430	0	0	0.1288445	0.99166481
-193.975128	114.499657	-14.245282	0	0	0.1288445	0.99166481
-192.785385	115.378937	-14.248100	0	0	0.1288445	0.99166481
-191.584717	116.243195	-14.250902	0	0	0.1288445	0.99166481
-190.373245	117.092316	-14.253687	0	0	0.1288445	0.99166481
-189.151215	117.926147	-14.256452	0	0	0.1288445	0.99166481
-187.918777	118.744568	-14.259203	0	0	0.1288445	0.99166481
-186.676178	119.547432	-14.261921	0	0	0.1288445	0.99166481
-185.423569	120.334641	-14.264640	0	0	0.1288445	0.99166481
-184.161163	121.106049	-14.267323	0	0	0.1288445	0.99166481
-182.889160	121.861534	-14.269992	0	0	0.1288445	0.99166481
-181.607758	122.600983	-14.272643	0	0	0.1288445	0.99166481
-180.317154	123.324280	-14.275283	0	0	0.1288445	0.99166481
-179.017563	124.031311	-14.277895	0	0	0.1288445	0.99166481
-177.709183	124.721954	-14.280479	0	0	0.1288445	0.99166481
-176.392242	125.396111	-14.283043	0	0	0.1288445	0.99166481
-175.066910	126.053673	-14.285600	0	0	0.1288445	0.99166481
-173.733414	126.694534	-14.288129	0	0	0.1288445	0.99166481
-172.391968	127.318604	-14.290647	0	0	0.1288445	0.99166481
-171.042786	127.925766	-14.293136	0	0	0.1288445	0.99166481
-169.686066	128.515930	-14.295606	0	0	0.1288445	0.99166481
-168.322037	129.089005	-14.298053	0	0	0.1288445	0.99166481
-166.950928	129.644897	-14.300481	0	0	0.1288445	0.99166481
-165.572906	130.183533	-14.302890	0	0	0.1288445	0.99166481
-164.188232	130.704819	-14.305285	0	0	0.1288445	0.99166481
-162.797119	131.208649	-14.307650	0	0	0.1288445	0.99166481
-161.399765	131.694977	-14.309998	0	0	0.1288445	0.99166481
-159.996414	132.163712	-14.312322	0	0	0.1288445	0.99166481
-158.587296	132.614792	-14.314618	0	0	0.1288445	0.99166481
-157.172592	133.048126	-14.316908	0	0	0.029199523	0.9995736
-155.752548	133.463654	-14.319172	0	0	0.029199523	0.9995736
-154.327393	133.861313	-14.321410	0	0	0.029199523	0.9995736
-152.897354	134.241028	-14.323627	0	0	0.029199523	0.9995736
-151.462646	134.602768	-14.325827	0	0	0.029199523	0.9995736
-150.023499	134.946442	-14.327998	0	0	0.029199523	0.9995736
-148.580154	135.272003	-14.330153	0	0	0.029199523	0.9995736
-147.132812	135.579422	-14.332284	0	0	0.029199523	0.9995736
-145.681732	135.868622	-14.334390	0	0	0.029199523	0.9995736
-144.227112	136.139587	-14.336480	0	0	0.029199523	0.9995736
-142.769196	136.392258	-14.338549	0	0	0.029199523	0.9995736
-141.308228	136.626572	-14.340590	0	0	0.029199523	0.9995736
-139.844406	136.842529	-14.342609	0	0	0.029199523	0.9995736
-138.377991	137.040085	-14.344609	0	0	0.029199523	0.9995736
-136.909210	137.219193	-14.346583	0	0	0.029199523	0.9995736
-135.438263	137.379837	-14.348538	0	0	0.029199523	0.9995736
-133.965439	137.522003	-14.350468	0	0	0.029199523	0.9995736
-132.490921	137.645645	-14.352374	0	0	0.029199523	0.9995736
-131.014969	137.750748	-14.354264	0	0	0.029199523	0.9995736
-129.537796	137.837311	-14.356134	0	0	0.029199523	0.9995736
-128.059647	137.905304	-14.357967	0	0	0.029199523	0.9995736
-126.580772	137.954727	-14.359785	0	0	0.029199523	0.9995736
-125.101364	137.985565	-14.361580	0	0	0.029199523	0.9995736
-123.621696	137.997818	-14.363348	0	0	0.029199523	0.9995736
-122.141968	137.991470	-14.365103	0	0	0.029199523	0.9995736
-120.662445	137.966553	-14.366828	0	0	0.029199523	0.9995736
-119.183342	137.923035	-14.368528	0	0	0.029199523	0.9995736
-117.704895	137.860947	-14.370204	0	0	0.029199523	0.9995736
-116.227348	137.780289	-14.371858	0	0	0.029199523	0.9995736
-114.750916	137.681061	-14.373488	0	0	0.029199523	0.9995736
-113.275841	137.563309	-14.375101	0	0	0.029199523	0.9995736
-111.802353	137.427032	-14.376682	0	0	0.029199523	0.9995736
-110.330681	137.272263	-14.378248	0	0	-0.070737201	0.99749499
-108.861084	137.098999	-14.379779	0	0	-0.070737201	0.99749499
-107.393768	136.907303	-14.381285	0	0	-0.070737201	0.99749499
-105.928963	136.697174	-14.382776	0	0	-0.070737201	0.99749499
-104.466904	136.468674	-14.384248	0	0	-0.070737201	0.99749499
-103.007835	136.221817	-14.385690	0	0	-0.070737201	0.99749499
-101.551979	135.956650	-14.387105	0	0	-0.070737201	0.99749499
-100.099556	135.673218	-14.388494	0	0	-0.070737201	0.99749499
-98.650803	135.371552	-14.389871	0	0	-0.070737201	0.99749499
-97.205956	135.051712	-14.391208	0	0	-0.070737201	0.99749499
-95.765228	134.713745	-14.392530	0	0	-0.070737201	0.99749499
-94.328857	134.357712	-14.393826	0	0	-0.070737201	0.99749499
-92.897057	133.983658	-14.395100	0	0	-0.070737201	0.99749499
-91.470078	133.591644	-14.396345	0	0	-0.070737201	0.99749499
-90.048126	133.181732	-14.397565	0	0	-0.070737201	0.99749499
-88.631424	132.753998	-14.398771	0	0	-0.070737201	0.99749499
-87.220215	132.308487	-14.399939	0	0	-0.070737201	0.99749499
-85.814697	131.845291	-14.401092	0	0	-0.070737201	0.99749499
-84.415115	131.364471	-14.402216	0	0	-0.070737201	0.99749499
-83.021667	130.866104	-14.403313	0	0	-0.070737201	0.99749499
-81.634590	130.350266	-14.404389	0	0	-0.070737201	0.99749499
-80.254097	129.817047	-14.405441	0	0	-0.070737201	0.99749499
-78.880402	129.266541	-14.406465	0	0	-0.070737201	0.99749499
-77.513733	128.698792	-14.407462	0	0	-0.070737201	0.99749499
-76.154297	128.113937	-14.408445	0	0	-0.070737201	0.99749499
-74.802315	127.512047	-14.409390	0	0	-0.070737201	0.99749499
-73.457993	126.893219	-14.410315	0	0	-0.070737201	0.99749499
-72.121544	126.257545	-14.411215	0	0	-0.070737201	0.99749499
-70.793182	125.605133	-14.412099	0	0	-0.070737201	0.99749499
-69.473114	124.936089	-14.412948	0	0	-0.070737201	0.99749499
-68.161560	124.250511	-14.413772	0	0	-0.070737201	0.99749499
-66.858711	123.548508	-14.414572	0	0	-0.070737201	0.99749499
-65.564774	122.830185	-14.415345	0	0	-0.16996714	0.98544973
-64.279968	122.095673	-14.416096	0	0	-0.16996714	0.98544973
-63.004482	121.345078	-14.416821	0	0	-0.16996714	0.98544973
-61.738514	120.578506	-14.417521	0	0	-0.16996714	0.98544973
-60.482285	119.796097	-14.418196	0	0	-0.16996714	0.98544973
-59.235970	118.997971	-14.418844	0	0	-0.16996714	0.98544973
-57.999779	118.184242	-14.419465	0	0	-0.16996714	0.98544973
-56.773907	117.355057	-14.420064	0	0	-0.16996714	0.98544973
-55.558537	116.510521	-14.420636	0	0	-0.16996714	0.98544973
-54.353874	115.650795	-14.421185	0	0	-0.16996714	0.98544973
-53.160095	114.775993	-14.421706	0	0	-0.16996714	0.98544973
-51.977402	113.886269	-14.422204	0	0	-0.16996714	0.98544973
-50.805977	112.981750	-14.422675	0	0	-0.16996714	0.98544973
-49.645996	112.062592	-14.423121	0	0	-0.16996714	0.98544973
-48.497654	111.128929	-14.423539	0	0	-0.16996714	0.98544973
-47.361130	110.180916	-14.423933	0	0	-0.16996714	0.98544973
-46.236595	109.218689	-14.424301	0	0	-0.16996714	0.98544973
-45.124241	108.242424	-14.424644	0	0	-0.16996714	0.98544973
-44.024223	107.252251	-14.424964	0	0	-0.16996714	0.98544973
-42.936737	106.248337	-14.425255	0	0	-0.16996714	0.98544973
-41.861938	105.230835	-14.425522	0	0	-0.16996714	0.98544973
-40.800007	104.199913	-14.425764	0	0	-0.16996714	0.98544973
-39.751106	103.155731	-14.425976	0	0	-0.16996714	0.98544973
-38.715401	102.098457	-14.426168	0	0	-0.16996714	0.98544973
-37.693058	101.028252	-14.426331	0	0	-0.16996714	0.98544973
-36.684231	99.945290	-14.426470	0	0	-0.16996714	0.98544973
-35.689087	98.849731	-14.426585	0	0	-0.16996714	0.98544973
-34.707783	97.741760	-14.426670	0	0	-0.16996714	0.98544973
-33.740471	96.621552	-14.426731	0	0	-0.16996714	0.98544973
-32.787304	95.489273	-14.426765	0	0	-0.16996714	0.98544973
-31.848434	94.345108	-14.426776	0	0	-0.16996714	0.98544973
-30.924006	93.189240	-14.426760	0	0	-0.16996714	0.98544973
-30.014168	92.021843	-14.426721	0	0	-0.26749883	0.96355818
-29.119064	90.843109	-14.426654	0	0	-0.26749883	0.96355818
-28.238836	89.653229	-14.426561	0	0	-0.26749883	0.96355818
-27.373623	88.452377	-14.426443	0	0	-0.26749883	0.96355818
-26.523558	87.240753	-14.426297	0	0	-0.26749883	0.96355818
-25.688778	86.018539	-14.426129	0	0	-0.26749883	0.96355818
-24.869413	84.785934	-14.425933	0	0	-0.26749883	0.96355818
-24.065598	83.543137	-14.425713	0	0	-0.26749883	0.96355818
-23.277454	82.290337	-14.425467	0	0	-0.26749883	0.96355818
-22.505108	81.027733	-14.425194	0	0	-0.26749883	0.96355818
-21.748678	79.755524	-14.424897	0	0	-0.26749883	0.96355818
-21.008289	78.473915	-14.424573	0	0	-0.26749883	0.96355818
-20.284056	77.183098	-14.424226	0	0	-0.26749883	0.96355818
-19.576092	75.883286	-14.423850	0	0	-0.26749883	0.96355818
-18.884510	74.574684	-14.423450	0	0	-0.26749883	0.96355818
-18.209417	73.257492	-14.423025	0	0	-0.26749883	0.96355818
-17.550920	71.931923	-14.422574	0	0	-0.26749883	0.96355818
-16.909128	70.598183	-14.422098	0	0	-0.26749883	0.96355818
-16.284138	69.256493	-14.421595	0	0	-0.26749883	0.96355818
-15.676049	67.907051	-14.421068	0	0	-0.26749883	0.96355818
-15.084957	66.550072	-14.420515	0	0	-0.26749883	0.96355818
-14.510956	65.185776	-14.419939	0	0	-0.26749883	0.96355818
-13.954136	63.814377	-14.419334	0	0	-0.26749883	0.96355818
-13.414585	62.436089	-14.418705	0	0	-0.26749883	0.96355818
-14.064008	74.335983	-14.418050	0	0	-0.26749883	0.96355818
-16.673391	116.094414	-10.610402	0	0	0	1
-18.197535	178.671143	17.482004	0	0	0	1
