-34.689770	-36.914631	468.386505	0	0	0	1
-39.059177	-30.656096	381.104919	0	0	0	1
-42.076839	-26.334846	320.824738	0	0	0	1
-44.286572	-23.171452	276.682983	0	0	0	1
-45.974873	-20.755314	242.956924	0	0	0	1
-47.307175	-18.849325	216.342026	0	0	0	1
-48.385590	-17.307138	194.798599	0	0	0	1
-49.276615	-16.033447	176.998337	0	0	0	1
-50.025360	-14.963601	162.040237	0	0	0	1
-50.663490	-14.052217	149.291641	0	0	0	1
-51.214020	-13.266312	138.292999	0	0	0	1
-51.693878	-12.581614	128.705963	0	0	0	1
-52.116032	-11.979550	120.271729	0	0	0	1
-52.490295	-11.446054	112.794136	0	0	0.90407214	0.42737988
-52.824493	-10.969901	106.116844	0	0	0	1
-53.124798	-10.542253	100.116669	0	0	0	1
-53.396191	-10.155964	94.693977	0	0	0	1
-53.447472	-10.185451	94.653351	0	0	0.90407214	0.42737988
-53.494011	-10.224407	94.738708	0	0	0.90407214	0.42737988
-53.540863	-10.263103	94.824623	0	0	0.90407214	0.42737988
-53.588047	-10.301537	94.911102	0	0	0.90407214	0.42737988
-53.635548	-10.339701	94.998131	0	0	0.85688874	0.51550139
-53.683369	-10.377597	95.085709	0	0	0.85688874	0.51550139
-53.731499	-10.415215	95.173836	0	0	0.85688874	0.51550139
-53.779957	-10.452560	95.262505	0	0	0.85688874	0.51550139
-53.828728	-10.489630	95.351715	0	0	0.85688874	0.51550139
-53.877811	-10.526412	95.441467	0	0	0.85688874	0.51550139
-53.927208	-10.562910	95.531746	0	0	0.85688874	0.51550139
-53.976913	-10.599121	95.622559	0	0	0.85688874	0.51550139
-54.026928	-10.635040	95.713890	0	0	0.85688874	0.51550139
-54.077259	-10.670668	95.805748	0	0	0.85688874	0.51550139
-54.127888	-10.705994	95.898132	0	0	0.85688874	0.51550139
-54.178822	-10.741021	95.991020	0	0	0.85688874	0.51550139
-54.230061	-10.775744	96.084427	0	0	0.85688874	0.51550139
-54.281597	-10.810164	96.178337	0	0	0.85688874	0.51550139
-54.333439	-10.844274	96.272758	0	0	0.85688874	0.51550139
-54.385574	-10.878070	96.367676	0	0	0.85688874	0.51550139
-54.438004	-10.911553	96.463081	0	0	0.85688874	0.51550139
-54.490730	-10.944717	96.558990	0	0	0.85688874	0.51550139
-54.543747	-10.977562	96.655388	0	0	0.85688874	0.51550139
-54.597057	-11.010083	96.752266	0	0	0.85688874	0.51550139
-54.650654	-11.042276	96.849625	0	0	0.85688874	0.51550139
-54.704533	-11.074139	96.947472	0	0	0.85688874	0.51550139
-54.758701	-11.105674	97.045784	0	0	0.85688874	0.51550139
-54.813156	-11.136870	97.144562	0	0	0	1
-54.867889	-11.167731	97.243813	0	0	0	1
-54.922894	-11.198248	97.343521	0	0	0	1
-54.978180	-11.228424	97.443695	0	0	0.80114363	0.59847213
-55.033741	-11.258253	97.544319	0	0	0.80114363	0.59847213
-55.089573	-11.287733	97.645386	0	0	0.80114363	0.59847213
-55.145672	-11.316860	97.746910	0	0	0.80114363	0.59847213
-55.202045	-11.345634	97.848869	0	0	0.80114363	0.59847213
-55.258675	-11.374049	97.951271	0	0	0.80114363	0.59847213
-55.315571	-11.402102	98.054108	0	0	0.80114363	0.59847213
-55.372730	-11.429797	98.157372	0	0	0.80114363	0.59847213
-55.430145	-11.457124	98.261055	0	0	0.80114363	0.59847213
-55.487816	-11.484083	98.365173	0	0	0.80114363	0.59847213
-55.545738	-11.510670	98.469696	0	0	0.80114363	0.59847213
-55.603916	-11.536884	98.574646	0	0	0.80114363	0.59847213
-55.662342	-11.562720	98.679993	0	0	0.80114363	0.59847213
-55.721012	-11.588181	98.785751	0	0	0.80114363	0.59847213
-55.779930	-11.613259	98.891914	0	0	0.80114363	0.59847213
-55.839081	-11.637952	98.998466	0	0	0.80114363	0.59847213
-55.898479	-11.662258	99.105415	0	0	0.80114363	0.59847213
-55.958111	-11.686176	99.212753	0	0	0.80114363	0.59847213
-56.017971	-11.709702	99.320480	0	0	0.80114363	0.59847213
-56.078064	-11.732834	99.428581	0	0	0.80114363	0.59847213
-56.138386	-11.755569	99.537056	0	0	0	1
-56.198929	-11.777905	99.645905	0	0	0	1
-56.259697	-11.799838	99.755119	0	0	0	1
-56.320690	-11.821368	99.864700	0	0	0	1
-56.381889	-11.842491	99.974640	0	0	0	1
-56.443306	-11.863206	100.084930	0	0	0	1
-56.504940	-11.883510	100.195572	0	0	0	1
-56.566772	-11.903399	100.306564	0	0	0	1
-56.628815	-11.922873	100.417892	0	0	0	1
-56.691059	-11.941928	100.529556	0	0	0	1
-56.753502	-11.960564	100.641548	0	0	0	1
-56.816139	-11.978776	100.753876	0	0	0	1
-56.878975	-11.996563	100.866524	0	0	0.73739371	0.67546319
-56.941994	-12.013924	100.979492	0	0	0.73739371	0.67546319
-57.005199	-12.030854	101.092773	0	0	0.73739371	0.67546319
-57.068592	-12.047354	101.206367	0	0	0.73739371	0.67546319
-57.132164	-12.063419	101.320267	0	0	0.73739371	0.67546319
-57.195915	-12.079050	101.434464	0	0	0.73739371	0.67546319
-57.259842	-12.094242	101.548965	0	0	0.73739371	0.67546319
-57.323933	-12.108994	101.663750	0	0	0.73739371	0.67546319
-57.388195	-12.123304	101.778824	0	0	0.73739371	0.67546319
-57.452625	-12.137172	101.894180	0	0	0.73739371	0.67546319
-57.517216	-12.150592	102.009819	0	0	0	1
-57.581959	-12.163565	102.125732	0	0	0	1
-57.646866	-12.176088	102.241913	0	0	0	1
-57.711914	-12.188160	102.358353	0	0	0	1
-57.777111	-12.199778	102.475060	0	0	0	1
-57.842457	-12.210940	102.592018	0	0	0	1
-57.907944	-12.221646	102.709236	0	0	0	1
-57.973564	-12.231894	102.826691	0	0	0	1
-58.039318	-12.241679	102.944389	0	0	0	1
-58.105209	-12.251003	103.062325	0	0	0	1
-58.171219	-12.259863	103.180496	0	0	0	1
-58.237354	-12.268257	103.298889	0	0	0	1
-58.303612	-12.276182	103.417511	0	0	0	1
-58.369984	-12.283640	103.536346	0	0	0	1
-58.436470	-12.290627	103.655396	0	0	0	1
-58.503063	-12.297143	103.774658	0	0	0	1
-58.569763	-12.303185	103.894119	0	0	0	1
-58.636562	-12.308751	104.013786	0	0	0	1
-58.703465	-12.313841	104.133644	0	0	0	1
-58.770458	-12.318453	104.253693	0	0	0	1
-58.837540	-12.322585	104.373924	0	0	0	1
-58.904709	-12.326239	104.494339	0	0	0.66627604	0.74570519
-58.971962	-12.329409	104.614929	0	0	0.66627604	0.74570519
-59.039291	-12.332096	104.735687	0	0	0	1
-59.106697	-12.334298	104.856621	0	0	0	1
-59.174179	-12.336015	104.977707	0	0	0	1
-59.241726	-12.337246	105.098953	0	0	0	1
-59.309334	-12.337988	105.220352	0	0	0	1
-59.377007	-12.338242	105.341896	0	0	0	1
-59.444729	-12.338005	105.463577	0	0	0	1
-59.512508	-12.337276	105.585403	0	0	0	1
-59.580334	-12.336058	105.707359	0	0	0	1
-59.648209	-12.334344	105.829445	0	0	0	1
-59.716122	-12.332136	105.951653	0	0	0	1
-59.784065	-12.329434	106.073982	0	0	0	1
-59.852047	-12.326236	106.196419	0	0	0	1
-59.920055	-12.322541	106.318970	0	0	0	1
-59.988087	-12.318349	106.441620	0	0	0	1
-60.056145	-12.313659	106.564377	0	0	0	1
-60.124210	-12.308470	106.687218	0	0	0	1
-60.192291	-12.302780	106.810150	0	0	0	1
-60.260384	-12.296591	106.933174	0	0	0	1
-60.328480	-12.289901	107.056267	0	0	0	1
-60.396572	-12.282710	107.179443	0	0	0	1
-60.464668	-12.275016	107.302689	0	0	0	1
-60.532749	-12.266821	107.425995	0	0	0	1
-60.600819	-12.258121	107.549362	0	0	0.58850112	0.8084964
-60.668873	-12.248919	107.672783	0	0	0.58850112	0.8084964
-60.736908	-12.239213	107.796257	0	0	0.58850112	0.8084964
-60.804916	-12.229003	107.919777	0	0	0.58850112	0.8084964
-60.872898	-12.218288	108.043335	0	0	0.58850112	0.8084964
-60.940849	-12.207069	108.166931	0	0	0.58850112	0.8084964
-61.008759	-12.195346	108.290558	0	0	0.58850112	0.8084964
-61.076630	-12.183118	108.414207	0	0	0	1
-61.144459	-12.170383	108.537880	0	0	0	1
-61.212234	-12.157145	108.661568	0	0	0	1
-61.279957	-12.143397	108.785271	0	0	0	1
-61.347626	-12.129149	108.908974	0	0	0	1
-61.415226	-12.114394	109.032684	0	0	0	1
-61.482761	-12.099133	109.156387	0	0	0	1
-61.550228	-12.083365	109.280083	0	0	0	1
-61.617622	-12.067095	109.403770	0	0	0	1
-61.684937	-12.050318	109.527435	0	0	0	1
-61.752167	-12.033036	109.651077	0	0	0	1
-61.899006	-12.214701	109.755898	0	0	0.58850112	0.8084964
-62.499653	-13.504292	109.755898	0	0	0.73739371	0.67546319
-63.116459	-14.786236	109.755898	0	0	0.80114363	0.59847213
-63.749329	-16.060329	109.755898	0	0	0.80114363	0.59847213
-64.398155	-17.326363	109.755898	0	0	0.80114363	0.59847213
-65.062843	-18.584143	109.755898	0	0	0.85688874	0.51550139
-65.743279	-19.833477	109.755898	0	0	0.85688874	0.51550139
-66.439369	-21.074160	109.755898	0	0	0.85688874	0.51550139
-67.150986	-22.305998	109.755898	0	0	0.85688874	0.51550139
-67.878021	-23.528795	109.755898	0	0	0.85688874	0.51550139
-68.620377	-24.742363	109.755898	0	0	0.90407214	0.42737988
-69.377914	-25.946507	109.755898	0	0	0.90407214	0.42737988
-70.150528	-27.141031	109.755898	0	0	0.90407214	0.42737988
-70.938095	-28.325752	109.755898	0	0	0.90407214	0.42737988
-71.740479	-29.500488	109.755898	0	0	0.90407214	0.42737988
-72.557564	-30.665051	109.755898	0	0	0.90407214	0.42737988
-73.389229	-31.819250	109.755898	0	0	0.90407214	0.42737988
-74.235321	-32.962906	109.755898	0	0	0.90407214	0.42737988
-75.095718	-34.095840	109.755898	0	0	0.90407214	0.42737988
-75.970284	-35.217876	109.755898	0	0	0.90407214	0.42737988
-76.858879	-36.328831	109.755898	0	0	0.90407214	0.42737988
-77.761368	-37.428532	109.755898	0	0	0.90407214	0.42737988
-78.677605	-38.516804	109.755898	0	0	0.90407214	0.42737988
-79.607445	-39.593483	109.755898	0	0	0.90407214	0.42737988
-80.550728	-40.658382	109.755898	0	0	0.90407214	0.42737988
-81.507339	-41.711353	109.755898	0	0	0.90407214	0.42737988
-82.477089	-42.752220	109.755898	0	0	0.90407214	0.42737988
-83.459854	-43.780815	109.755898	0	0	0.90407214	0.42737988
-84.455460	-44.796982	109.755898	0	0	0.90407214	0.42737988
-85.463753	-45.800552	109.755898	0	0	0.90407214	0.42737988
-86.484596	-46.791382	109.755898	0	0	0.90407214	0.42737988
-87.517792	-47.769299	109.755898	0	0	0.90407214	0.42737988
-88.563194	-48.734150	109.755898	0	0	0.90407214	0.42737988
-89.620651	-49.685802	109.755898	0	0	0.90407214	0.42737988
-90.689972	-50.624081	109.755898	0	0	0.90407214	0.42737988
-91.771004	-51.548859	109.755898	0	0	0.90407214	0.42737988
-92.863571	-52.459969	109.755898	0	0	0.90407214	0.42737988
-93.967491	-53.357273	109.755898	0	0	0.90407214	0.42737988
-95.082611	-54.240650	109.755898	0	0	0.90407214	0.42737988
-96.208748	-55.109940	109.755898	0	0	0.90407214	0.42737988
-97.345703	-55.965004	109.755898	0	0	0.90407214	0.42737988
-98.493317	-56.805714	109.755898	0	0	0.90407214	0.42737988
-99.651421	-57.631943	109.755898	0	0	0.90407214	0.42737988
-100.819801	-58.443550	109.755898	0	0	0.90407214	0.42737988
-101.998299	-59.240417	109.755898	0	0	0.90407214	0.42737988
-103.186699	-60.022404	109.755898	0	0	0.90407214	0.42737988
-104.384842	-60.789394	109.755898	0	0	0.90407214	0.42737988
-105.592522	-61.541271	109.755898	0	0	0.90407214	0.42737988
-106.809570	-62.277916	109.755898	0	0	0.90407214	0.42737988
-108.035774	-62.999210	109.755898	0	0	0.90407214	0.42737988
-109.270935	-63.705032	109.755898	0	0	0.90407214	0.42737988
-110.514877	-64.395279	109.755898	0	0	0.90407214	0.42737988
-111.767387	-65.069839	109.755898	0	0	0.90407214	0.42737988
-113.028275	-65.728615	109.755898	0	0	0.90407214	0.42737988
-114.297356	-66.371490	109.755898	0	0	0.90407214	0.42737988
-115.574394	-66.998360	109.755898	0	0	0.90407214	0.42737988
-116.859230	-67.609146	109.755898	0	0	0.90407214	0.42737988
-118.151619	-68.203728	109.755898	0	0	0.90407214	0.42737988
-119.451393	-68.782036	109.755898	0	0	0.90407214	0.42737988
-120.758324	-69.343948	109.755898	0	0	0.90407214	0.42737988
-122.072220	-69.889404	109.755898	0	0	0.90407214	0.42737988
-123.392860	-70.418304	109.755898	0	0	0.90407214	0.42737988
-124.720039	-70.930565	109.755898	0	0	0.85688874	0.51550139
-126.053558	-71.426109	109.755898	0	0	0.85688874	0.51550139
-127.393196	-71.904854	109.755898	0	0	0.85688874	0.51550139
-128.738739	-72.366737	109.755898	0	0	0.85688874	0.51550139
-130.089981	-72.811661	109.755898	0	0	0.85688874	0.51550139
-131.446716	-73.239586	109.755898	0	0	0.85688874	0.51550139
-132.808716	-73.650414	109.755898	0	0	0.85688874	0.51550139
-134.175766	-74.044098	109.755898	0	0	0.85688874	0.51550139
-135.547653	-74.420578	109.755898	0	0	0.85688874	0.51550139
-136.924179	-74.779785	109.755898	0	0	0.85688874	0.51550139
-138.305099	-75.121674	109.755898	0	0	0.85688874	0.51550139
-139.690201	-75.446175	109.755898	0	0	0.85688874	0.51550139
-141.079285	-75.753250	109.755898	0	0	0.85688874	0.51550139
-142.472107	-76.042839	109.755898	0	0	0.85688874	0.51550139
-143.868469	-76.314911	109.755898	0	0	0.85688874	0.51550139
-145.268127	-76.569405	109.755898	0	0	0.85688874	0.51550139
-146.670868	-76.806297	109.755898	0	0	0.85688874	0.51550139
-148.076492	-77.025543	109.755898	0	0	0.80114363	0.59847213
-149.484756	-77.227112	109.755898	0	0	0.80114363	0.59847213
-150.895432	-77.410965	109.755898	0	0	0.80114363	0.59847213
-152.308319	-77.577072	109.755898	0	0	0.80114363	0.59847213
-153.723175	-77.725418	109.755898	0	0	0.80114363	0.59847213
-155.139786	-77.855972	109.755898	0	0	0.80114363	0.59847213
-156.557922	-77.968712	109.755898	0	0	0.80114363	0.59847213
-157.977371	-78.063622	109.755898	0	0	0.80114363	0.59847213
-159.397888	-78.140694	109.755898	0	0	0.80114363	0.59847213
-160.819275	-78.199905	109.755898	0	0	0.80114363	0.59847213
-162.241287	-78.241249	109.755898	0	0	0.80114363	0.59847213
-163.663696	-78.264725	109.755898	0	0	0.80114363	0.59847213
-165.086304	-78.270317	109.755898	0	0	0.80114363	0.59847213
-166.508865	-78.258041	109.755898	0	0	0.80114363	0.59847213
-167.931152	-78.227890	109.755898	0	0	0.80114363	0.59847213
-169.352951	-78.179863	109.755898	0	0	0.80114363	0.59847213
-170.774048	-78.113976	109.755898	0	0	0.80114363	0.59847213
-172.194183	-78.030235	109.755898	0	0	0.80114363	0.59847213
-173.613174	-77.928658	109.755898	0	0	0.80114363	0.59847213
-175.030762	-77.809258	109.755898	0	0	0.80114363	0.59847213
-176.446747	-77.672050	109.755898	0	0	0.80114363	0.59847213
-177.860901	-77.517059	109.755898	0	0	0.73739371	0.67546319
-179.272980	-77.344322	109.755898	0	0	0.73739371	0.67546319
-180.682785	-77.153839	109.755898	0	0	0.73739371	0.67546319
-182.090088	-76.945663	109.755898	0	0	0.73739371	0.67546319
-183.494659	-76.719818	109.755898	0	0	0.73739371	0.67546319
-184.896286	-76.476341	109.755898	0	0	0.73739371	0.67546319
-186.294724	-76.215271	109.755898	0	0	0.73739371	0.67546319
-187.689789	-75.936646	109.755898	0	0	0.73739371	0.67546319
-189.081238	-75.640518	109.755898	0	0	0.73739371	0.67546319
-190.468857	-75.326927	109.755898	0	0	0.73739371	0.67546319
-191.852432	-74.995918	109.755898	0	0	0.73739371	0.67546319
-193.231720	-74.647552	109.755898	0	0	0.73739371	0.67546319
-194.606537	-74.281883	109.755898	0	0	0.73739371	0.67546319
-195.976654	-73.898972	109.755898	0	0	0.73739371	0.67546319
-197.341843	-73.498863	109.755898	0	0	0.73739371	0.67546319
-198.701904	-73.081635	109.755898	0	0	0.73739371	0.67546319
-200.056610	-72.647354	109.755898	0	0	0.73739371	0.67546319
-201.405746	-72.196075	109.755898	0	0	0.73739371	0.67546319
-202.749100	-71.727890	109.755898	0	0	0.73739371	0.67546319
-204.086472	-71.242851	109.755898	0	0	0.73739371	0.67546319
-205.417648	-70.741051	109.755898	0	0	0.73739371	0.67546319
-206.742416	-70.222565	109.755898	0	0	0.73739371	0.67546319
-208.060547	-69.687469	109.755898	0	0	0.73739371	0.67546319
-209.371872	-69.135849	109.755898	0	0	0.73739371	0.67546319
-210.676147	-68.567795	109.755898	0	0	0.73739371	0.67546319
-211.973190	-67.983398	109.755898	0	0	0.66627604	0.74570519
-213.262772	-67.382751	109.755898	0	0	0.66627604	0.74570519
-214.544724	-66.765945	109.755898	0	0	0.66627604	0.74570519
-215.818817	-66.133080	109.755898	0	0	0.66627604	0.74570519
-217.084839	-65.484253	109.755898	0	0	0.66627604	0.74570519
-218.342636	-64.819565	109.755898	0	0	0.66627604	0.74570519
-219.591965	-64.139122	109.755898	0	0	0.66627604	0.74570519
-220.832642	-63.443039	109.755898	0	0	0.66627604	0.74570519
-222.064484	-62.731419	109.755898	0	0	0.66627604	0.74570519
-223.287277	-62.004379	109.755898	0	0	0.66627604	0.74570519
-224.500854	-61.262028	109.755898	0	0	0.66627604	0.74570519
-225.704987	-60.504486	109.755898	0	0	0.66627604	0.74570519
-226.899521	-59.731873	109.755898	0	0	0.66627604	0.74570519
-228.084244	-58.944313	109.755898	0	0	0.66627604	0.74570519
-229.258972	-58.141922	109.755898	0	0	0.66627604	0.74570519
-230.423538	-57.324837	109.755898	0	0	0.66627604	0.74570519
-231.577728	-56.493183	109.755898	0	0	0.66627604	0.74570519
-232.721390	-55.647083	109.755898	0	0	0.66627604	0.74570519
-233.854324	-54.786686	109.755898	0	0	0.66627604	0.74570519
-234.976364	-53.912121	109.755898	0	0	0.66627604	0.74570519
-236.087311	-53.023521	109.755898	0	0	0.66627604	0.74570519
-237.187012	-52.121037	109.755898	0	0	0.66627604	0.74570519
-238.275299	-51.204800	109.755898	0	0	0.66627604	0.74570519
-239.351974	-50.274960	109.755898	0	0	0.66627604	0.74570519
-240.416870	-49.331669	109.755898	0	0	0.66627604	0.74570519
-241.469833	-48.375069	109.755898	0	0	0.66627604	0.74570519
-242.510712	-47.405308	109.755898	0	0	0.66627604	0.74570519
-243.539307	-46.422550	109.755898	0	0	0.58850112	0.8084964
-244.555466	-45.426945	109.755898	0	0	0.58850112	0.8084964
-245.559036	-44.418644	109.755898	0	0	0.58850112	0.8084964
-246.549866	-43.397812	109.755898	0	0	0.58850112	0.8084964
-247.527786	-42.364613	109.755898	0	0	0.58850112	0.8084964
-248.492645	-41.319202	109.755898	0	0	0.58850112	0.8084964
-249.444290	-40.261757	109.755898	0	0	0.58850112	0.8084964
-250.382568	-39.192432	109.755898	0	0	0.58850112	0.8084964
-251.307343	-38.111404	109.755898	0	0	0.58850112	0.8084964
-252.218445	-37.018837	109.755898	0	0	0.58850112	0.8084964
-253.115768	-35.914909	109.755898	0	0	0.58850112	0.8084964
-253.999130	-34.799793	109.755898	0	0	0.58850112	0.8084964
-254.868423	-33.673660	109.755898	0	0	0.58850112	0.8084964
-255.723480	-32.536701	109.755898	0	0	0.58850112	0.8084964
-256.564209	-31.389080	109.755898	0	0	0.58850112	0.8084964
-257.390411	-30.230988	109.755898	0	0	0.58850112	0.8084964
-258.202026	-29.062603	109.755898	0	0	0.58850112	0.8084964
-258.998901	-27.884111	109.755898	0	0	0.58850112	0.8084964
-259.780884	-26.695704	109.755898	0	0	0.58850112	0.8084964
-260.547882	-25.497561	109.755898	0	0	0.58850112	0.8084964
-261.299744	-24.289873	109.755898	0	0	0.58850112	0.8084964
-262.036407	-23.072836	109.755898	0	0	0.58850112	0.8084964
-262.757690	-21.846634	109.755898	0	0	0.58850112	0.8084964
-263.463531	-20.611467	109.755898	0	0	0.58850112	0.8084964
-264.153778	-19.367527	109.755898	0	0	0.58850112	0.8084964
-264.828339	-18.115015	109.755898	0	0	0.58850112	0.8084964
-265.487091	-16.854122	109.755898	0	0	0.58850112	0.8084964
-266.129974	-15.585052	109.755898	0	0	0.58850112	0.8084964
-266.756836	-14.308003	109.755898	0	0	0.50484609	0.86320938
-267.367615	-13.023178	109.755898	0	0	0.50484609	0.86320938
-267.962219	-11.730780	109.755898	0	0	0.50484609	0.86320938
-268.540527	-10.431011	109.755898	0	0	0.50484609	0.86320938
-269.102448	-9.124079	109.755898	0	0	0.50484609	0.86320938
-269.647888	-7.810188	109.755898	0	0	0.50484609	0.86320938
-270.176788	-6.489547	109.755898	0	0	0.50484609	0.86320938
-270.689056	-5.162364	109.755898	0	0	0.50484609	0.86320938
-271.184601	-3.828848	109.755898	0	0	0.50484609	0.86320938
-271.663330	-2.489212	109.755898	0	0	0.50484609	0.86320938
-272.125214	-1.143664	109.755898	0	0	0.50484609	0.86320938
-272.570160	0.207580	109.755898	0	0	0.50484609	0.86320938
-272.998077	1.564310	109.755898	0	0	0.50484609	0.86320938
-273.408905	2.926309	109.755898	0	0	0.50484609	0.86320938
-273.802582	4.293364	109.755898	0	0	0.50484609	0.86320938
-274.179077	5.665257	109.755898	0	0	0.50484609	0.86320938
-274.538269	7.041774	109.755898	0	0	0.50484609	0.86320938
-274.880157	8.422695	109.755898	0	0	0.50484609	0.86320938
-275.204651	9.807802	109.755898	0	0	0.50484609	0.86320938
-275.511719	11.196879	109.755898	0	0	0.50484609	0.86320938
-275.801331	12.589705	109.755898	0	0	0.50484609	0.86320938
-276.073395	13.986060	109.755898	0	0	0.50484609	0.86320938
-276.327881	15.385724	109.755898	0	0	0.50484609	0.86320938
-276.564789	16.788473	109.755898	0	0	0.50484609	0.86320938
-276.784027	18.194090	109.755898	0	0	0.50484609	0.86320938
-276.985596	19.602350	109.755898	0	0	0.50484609	0.86320938
-277.169434	21.013035	109.755898	0	0	0.50484609	0.86320938
-277.335571	22.425915	109.755898	0	0	0.50484609	0.86320938
-277.483887	23.840773	109.755898	0	0	0.50484609	0.86320938
-277.614441	25.257383	109.755898	0	0	0.50484609	0.86320938
-277.727203	26.675518	109.755898	0	0	0.41614682	0.90929743
-277.822113	28.094965	109.755898	0	0	0.41614682	0.90929743
-277.899170	29.515488	109.755898	0	0	0.41614682	0.90929743
-277.958374	30.936867	109.755898	0	0	0.41614682	0.90929743
-277.999725	32.358879	109.755898	0	0	0.41614682	0.90929743
-278.023193	33.781296	109.755898	0	0	0.41614682	0.90929743
-278.028809	35.203903	109.755898	0	0	0.41614682	0.90929743
-278.016541	36.626461	109.755898	0	0	0.41614682	0.90929743
-277.986359	38.048756	109.755898	0	0	0.41614682	0.90929743
-277.938354	39.470554	109.755898	0	0	0.41614682	0.90929743
-277.872467	40.891640	109.755898	0	0	0.41614682	0.90929743
-277.788727	42.311790	109.755898	0	0	0.41614682	0.90929743
-277.687134	43.730770	109.755898	0	0	0.41614682	0.90929743
-277.567749	45.148361	109.755898	0	0	0.41614682	0.90929743
-277.430542	46.564342	109.755898	0	0	0.41614682	0.90929743
-277.275543	47.978489	109.755898	0	0	0.41614682	0.90929743
-277.102814	49.390575	109.755898	0	0	0.41614682	0.90929743
-276.912323	50.800377	109.755898	0	0	0.41614682	0.90929743
-276.704163	52.207676	109.755898	0	0	0.41614682	0.90929743
-276.478302	53.612251	109.755898	0	0	0.41614682	0.90929743
-276.234833	55.013870	109.755898	0	0	0.41614682	0.90929743
-275.973755	56.412315	109.755898	0	0	0.41614682	0.90929743
-275.695129	57.807381	109.755898	0	0	0.41614682	0.90929743
-275.399017	59.198837	109.755898	0	0	0.41614682	0.90929743
-275.085419	60.586452	109.755898	0	0	0.41614682	0.90929743
-274.754395	61.970020	109.755898	0	0	0.41614682	0.90929743
-274.406036	63.349323	109.755898	0	0	0.41614682	0.90929743
-274.040375	64.724136	109.755898	0	0	0.41614682	0.90929743
-273.657440	66.094254	109.755898	0	0	0.41614682	0.90929743
-273.257355	67.459442	109.755898	0	0	0.41614682	0.90929743
-272.840118	68.819489	109.755898	0	0	0.41614682	0.90929743
-272.405853	70.174202	109.755898	0	0	0.32328956	0.94630009
-271.954559	71.523338	109.755898	0	0	0.32328956	0.94630009
-271.896393	71.693245	109.755898	0	0	0.32328956	0.94630009
-271.629211	72.591812	109.673882	0	0	0.32328956	0.94630009
-271.212372	73.941826	109.550270	0	0	0.32328956	0.94630009
-270.778473	75.286858	109.426636	0	0	0.32328956	0.94630009
-270.327637	76.626671	109.302979	0	0	0.32328956	0.94630009
-269.859863	77.961067	109.179314	0	0	0.32328956	0.94630009
-269.375244	79.289833	109.055634	0	0	0.32328956	0.94630009
-268.873840	80.612732	108.931953	0	0	0.32328956	0.94630009
-268.355743	81.929588	108.808273	0	0	0.32328956	0.94630009
-267.821014	83.240166	108.684601	0	0	0.32328956	0.94630009
-267.269745	84.544258	108.560936	0	0	0.32328956	0.94630009
-266.701996	85.841667	108.437286	0	0	0.32328956	0.94630009
-266.117859	87.132187	108.313652	0	0	0.32328956	0.94630009
-265.517426	88.415604	108.190048	0	0	0.32328956	0.94630009
-264.900787	89.691711	108.066475	0	0	0.32328956	0.94630009
-264.268036	90.960312	107.942932	0	0	0.32328956	0.94630009
-263.619232	92.221207	107.819435	0	0	0.32328956	0.94630009
-262.954498	93.474174	107.695976	0	0	0.32328956	0.94630009
-262.273926	94.719032	107.572571	0	0	0.32328956	0.94630009
-261.577637	95.955574	107.449219	0	0	0.32328956	0.94630009
-260.865723	97.183601	107.325928	0	0	0.32328956	0.94630009
-260.138275	98.402924	107.202698	0	0	0.32328956	0.94630009
-259.395447	99.613342	107.079536	0	0	0.32328956	0.94630009
-258.637268	100.814667	106.956451	0	0	0.32328956	0.94630009
-257.863922	102.006691	106.833443	0	0	0.32328956	0.94630009
-257.075500	103.189240	106.710518	0	0	0.32328956	0.94630009
-256.272125	104.362114	106.587677	0	0	0.32328956	0.94630009
-255.453918	105.525131	106.464935	0	0	0.32328956	0.94630009
-254.620987	106.678101	106.342293	0	0	0.32328956	0.94630009
-253.773483	107.820847	106.219749	0	0	0.32328956	0.94630009
-252.911514	108.953171	106.097313	0	0	0.32328956	0.94630009
-252.035217	110.074905	105.974991	0	0	0.22720209	0.97384763
-251.144714	111.185852	105.852783	0	0	0.22720209	0.97384763
-250.240173	112.285851	105.730705	0	0	0.22720209	0.97384763
-249.321686	113.374718	105.608749	0	0	0.22720209	0.97384763
-248.389420	114.452271	105.486923	0	0	0.22720209	0.97384763
-247.443512	115.518341	105.365234	0	0	0.22720209	0.97384763
-246.484100	116.572769	105.243690	0	0	0.22720209	0.97384763
-245.511322	117.615364	105.122292	0	0	0.22720209	0.97384763
-244.525345	118.645981	105.001038	0	0	0.22720209	0.97384763
-243.526321	119.664429	104.879951	0	0	0.22720209	0.97384763
-242.514374	120.670563	104.759018	0	0	0.22720209	0.97384763
-241.489685	121.664207	104.638245	0	0	0.22720209	0.97384763
-240.452377	122.645210	104.517647	0	0	0.22720209	0.97384763
-239.402649	123.613419	104.397224	0	0	0.22720209	0.97384763
-238.340637	124.568649	104.276985	0	0	0.22720209	0.97384763
-237.266510	125.510788	104.156929	0	0	0.22720209	0.97384763
-236.180420	126.439651	104.037056	0	0	0.22720209	0.97384763
-235.082550	127.355095	103.917381	0	0	0.22720209	0.97384763
-233.973068	128.256973	103.797905	0	0	0.22720209	0.97384763
-232.852127	129.145142	103.678627	0	0	0.22720209	0.97384763
-231.719910	130.019455	103.559563	0	0	0.22720209	0.97384763
-230.576569	130.879776	103.440712	0	0	0.22720209	0.97384763
-229.422318	131.725952	103.322075	0	0	0.22720209	0.97384763
-228.257294	132.557861	103.203659	0	0	0.22720209	0.97384763
-227.081711	133.375366	103.085472	0	0	0.22720209	0.97384763
-225.895721	134.178314	102.967522	0	0	0.22720209	0.97384763
-224.699539	134.966583	102.849800	0	0	0.22720209	0.97384763
-223.493301	135.740067	102.732323	0	0	0.22720209	0.97384763
-222.277222	136.498611	102.615089	0	0	0.22720209	0.97384763
-221.051468	137.242111	102.498100	0	0	0.22720209	0.97384763
-219.816269	137.970444	102.381371	0	0	0.22720209	0.97384763
-218.571777	138.683456	102.264900	0	0	0.22720209	0.97384763
-217.318192	139.381073	102.148697	0	0	0.1288445	0.99166481
-216.055725	140.063171	102.032761	0	0	0.1288445	0.99166481
-214.784531	140.729630	101.917099	0	0	0.1288445	0.99166481
-213.504837	141.380341	101.801704	0	0	0.1288445	0.99166481
-212.216827	142.015198	101.686600	0	0	0.1288445	0.99166481
-210.920700	142.634094	101.571785	0	0	0.1288445	0.99166481
-209.616669	143.236923	101.457260	0	0	0.1288445	0.99166481
-208.304932	143.823608	101.343025	0	0	0.1288445	0.99166481
-206.985672	144.394028	101.229095	0	0	0.1288445	0.99166481
-205.659088	144.948090	101.115463	0	0	0.1288445	0.99166481
-204.325409	145.485718	101.002151	0	0	0.1288445	0.99166481
-202.984848	146.006805	100.889145	0	0	0.1288445	0.99166481
-201.637573	146.511276	100.776459	0	0	0.1288445	0.99166481
-200.283844	146.999039	100.664093	0	0	0.1288445	0.99166481
-198.923813	147.470016	100.552055	0	0	0.1288445	0.99166481
-197.557724	147.924133	100.440353	0	0	0.1288445	0.99166481
-196.185791	148.361298	100.328987	0	0	0.1288445	0.99166481
-194.808182	148.781448	100.217957	0	0	0.1288445	0.99166481
-193.425156	149.184525	100.107269	0	0	0.1288445	0.99166481
-192.036942	149.570419	99.996933	0	0	0.1288445	0.99166481
-190.643692	149.939117	99.886955	0	0	0.1288445	0.99166481
-189.245667	150.290512	99.777328	0	0	0.1288445	0.99166481
-187.843063	150.624573	99.668068	0	0	0.1288445	0.99166481
-186.436111	150.941223	99.559166	0	0	0.1288445	0.99166481
-185.025024	151.240417	99.450645	0	0	0.1288445	0.99166481
-183.610016	151.522110	99.342491	0	0	0.1288445	0.99166481
-182.191299	151.786240	99.234718	0	0	0.1288445	0.99166481
-180.769104	152.032745	99.127335	0	0	0.1288445	0.99166481
-179.343658	152.261612	99.020332	0	0	0.1288445	0.99166481
-177.915176	152.472794	98.913727	0	0	0.1288445	0.99166481
-176.483841	152.666245	98.807510	0	0	0.1288445	0.99166481
-175.049942	152.841919	98.701698	0	0	0.1288445	0.99166481
-173.613647	152.999802	98.596291	0	0	0.1288445	0.99166481
-172.175217	153.139847	98.491287	0	0	0.029199523	0.9995736
-170.734848	153.262039	98.386703	0	0	0.029199523	0.9995736
-169.292770	153.366333	98.282532	0	0	0.029199523	0.9995736
-167.849228	153.452744	98.178787	0	0	0.029199523	0.9995736
-166.404388	153.521225	98.075462	0	0	0.029199523	0.9995736
-164.958527	153.571777	97.972565	0	0	0.029199523	0.9995736
-163.511871	153.604355	97.870110	0	0	0.029199523	0.9995736
-162.064606	153.618988	97.768082	0	0	0.029199523	0.9995736
-160.616989	153.615646	97.666504	0	0	0.029199523	0.9995736
-159.169235	153.594330	97.565361	0	0	0.029199523	0.9995736
-157.721558	153.555023	97.464676	0	0	0.029199523	0.9995736
-156.274185	153.497757	97.364441	0	0	0.029199523	0.9995736
-154.827347	153.422501	97.264664	0	0	0.029199523	0.9995736
-153.381287	153.329285	97.165344	0	0	0.029199523	0.9995736
-151.936203	153.218109	97.066498	0	0	0.029199523	0.9995736
-150.492310	153.088989	96.968117	0	0	0.029199523	0.9995736
-149.049881	152.941940	96.870209	0	0	0.029199523	0.9995736
-147.609070	152.776962	96.772774	0	0	0.029199523	0.9995736
-146.170166	152.594101	96.675819	0	0	0.029199523	0.9995736
-144.733353	152.393356	96.579353	0	0	0.029199523	0.9995736
-143.298874	152.174789	96.483376	0	0	0.029199523	0.9995736
-141.866943	151.938385	96.387886	0	0	0.029199523	0.9995736
-140.437775	151.684204	96.292892	0	0	0.029199523	0.9995736
-139.011612	151.412262	96.198402	0	0	0.029199523	0.9995736
-137.588654	151.122620	96.104416	0	0	0.029199523	0.9995736
-136.169144	150.815308	96.010933	0	0	0.029199523	0.9995736
-134.753281	150.490341	95.917961	0	0	0.029199523	0.9995736
-133.341293	150.147812	95.825508	0	0	0.029199523	0.9995736
-131.933411	149.787735	95.733566	0	0	0.029199523	0.9995736
-130.529846	149.410172	95.642151	0	0	0.029199523	0.9995736
-129.130814	149.015167	95.551262	0	0	0.029199523	0.9995736
-127.736519	148.602783	95.460899	0	0	0.029199523	0.9995736
-126.347206	148.173096	95.371063	0	0	0.029199523	0.9995736
-124.963081	147.726151	95.281769	0	0	0.029199523	0.9995736
-123.584351	147.262009	95.193016	0	0	0.029199523	0.9995736
-122.211235	146.780731	95.104805	0	0	0.029199523	0.9995736
-120.843948	146.282410	95.017136	0	0	-0.070737201	0.99749499
-119.482704	145.767105	94.930023	0	0	-0.070737201	0.99749499
-118.127716	145.234894	94.843460	0	0	-0.070737201	0.99749499
-116.779190	144.685852	94.757454	0	0	-0.070737201	0.99749499
-115.437340	144.120071	94.672012	0	0	-0.070737201	0.99749499
-114.102371	143.537613	94.587128	0	0	-0.070737201	0.99749499
-112.774490	142.938583	94.502815	0	0	-0.070737201	0.99749499
-111.453918	142.323059	94.419067	0	0	-0.070737201	0.99749499
-110.140839	141.691116	94.335899	0	0	-0.070737201	0.99749499
-108.835472	141.042892	94.253304	0	0	-0.070737201	0.99749499
-107.538017	140.378448	94.171288	0	0	-0.070737201	0.99749499
-106.248680	139.697876	94.089859	0	0	-0.070737201	0.99749499
-104.967651	139.001312	94.009010	0	0	-0.070737201	0.99749499
-103.695137	138.288834	93.928757	0	0	-0.070737201	0.99749499
-102.431335	137.560547	93.849098	0	0	-0.070737201	0.99749499
-101.176453	136.816574	93.770027	0	0	-0.070737201	0.99749499
-99.930672	136.057022	93.691559	0	0	-0.070737201	0.99749499
-98.694191	135.281998	93.613701	0	0	-0.070737201	0.99749499
-97.467201	134.491623	93.536438	0	0	-0.070737201	0.99749499
-96.249893	133.686005	93.459785	0	0	-0.070737201	0.99749499
-95.042465	132.865280	93.383751	0	0	-0.070737201	0.99749499
-93.845100	132.029556	93.308327	0	0	-0.070737201	0.99749499
-92.657982	131.178986	93.233513	0	0	-0.070737201	0.99749499
-91.481293	130.313660	93.159325	0	0	-0.070737201	0.99749499
-90.315231	129.433731	93.085762	0	0	-0.070737201	0.99749499
-89.159973	128.539337	93.012825	0	0	-0.070737201	0.99749499
-88.015686	127.630592	92.940514	0	0	-0.070737201	0.99749499
-86.882561	126.707649	92.868843	0	0	-0.070737201	0.99749499
-85.760780	125.770638	92.797798	0	0	-0.070737201	0.99749499
-84.650497	124.819710	92.727394	0	0	-0.070737201	0.99749499
-83.551910	123.854996	92.657631	0	0	-0.070737201	0.99749499
-82.465179	122.876656	92.588509	0	0	-0.070737201	0.99749499
-81.390472	121.884827	92.520027	0	0	-0.070737201	0.99749499
-80.327965	120.879662	92.452202	0	0	-0.070737201	0.99749499
-79.277809	119.861313	92.385025	0	0	-0.070737201	0.99749499
-78.240189	118.829926	92.318504	0	0	-0.070737201	0.99749499
-77.215240	117.785675	92.252640	0	0	-0.070737201	0.99749499
-76.203148	116.728714	92.187431	0	0	-0.070737201	0.99749499
-75.204063	115.659195	92.122887	0	0	-0.070737201	0.99749499
-74.218140	114.577278	92.059006	0	0	-0.070737201	0.99749499
-73.245529	113.483131	91.995796	0	0	-0.070737201	0.99749499
-72.286385	112.376923	91.933250	0	0	-0.070737201	0.99749499
-71.340866	111.258827	91.871376	0	0	-0.16996714	0.98544973
-70.409103	110.128998	91.810173	0	0	-0.16996714	0.98544973
-69.491257	108.987625	91.749649	0	0	-0.16996714	0.98544973
-68.587471	107.834862	91.689812	0	0	-0.16996714	0.98544973
-67.697876	106.670906	91.630646	0	0	-0.16996714	0.98544973
-66.822617	105.495911	91.572166	0	0	-0.16996714	0.98544973
-65.961838	104.310074	91.514374	0	0	-0.16996714	0.98544973
-65.115662	103.113571	91.457268	0	0	-0.16996714	0.98544973
-64.284225	101.906578	91.400856	0	0	-0.16996714	0.98544973
-63.467659	100.689278	91.345131	0	0	-0.16996714	0.98544973
-62.666100	99.461868	91.290108	0	0	-0.16996714	0.98544973
-61.879662	98.224525	91.235779	0	0	-0.16996714	0.98544973
-61.108471	96.977448	91.182144	0	0	-0.16996714	0.98544973
-60.352646	95.720810	91.129219	0	0	-0.16996714	0.98544973
-59.612312	94.454819	91.076996	0	0	-0.16996714	0.98544973
-58.887577	93.179657	91.025475	0	0	-0.16996714	0.98544973
-58.178562	91.895531	90.974655	0	0	-0.16996714	0.98544973
-57.485378	90.602623	90.924553	0	0	-0.16996714	0.98544973
-56.808128	89.301132	90.875160	0	0	-0.16996714	0.98544973
-56.418442	89.827629	89.312958	0	0	0	1
-56.963043	96.255600	81.681053	0	0	0	1
-57.611660	102.352798	71.695694	0	0	0	1
-58.362926	107.311066	58.920456	0	0	0	1
-59.190704	109.889748	43.185959	0	0	0	1
-60.027939	108.475922	24.959486	0	0	0	1
-60.758587	101.490799	5.747088	0	0	-0.26749883	0.96355818
-64.853355	245.235031	3.216001	0	0	-0.26749883	0.96355818
92.3342	87.4918	-30.9674	0.0	0.0	-0.95533609703	0.295521474197	
