-128.139206	-25.988766	-152.689911	0	0	0	1
-128.492126	-25.230446	-152.919601	0	0	0	1
-128.839920	-24.467901	-153.149429	0	0	0	1
-129.182510	-23.701176	-153.379379	0	0	0	1
-129.649445	-26.842699	-153.770370	0	0	0	1
-129.519867	-22.930298	-153.609451	0	0	0	1
-129.851944	-22.155313	-153.839615	0	0	0	1
-130.178680	-21.376263	-154.069885	0	0	0	1
-130.500015	-20.593178	-154.300232	0	0	0	1
-130.815918	-19.806105	-154.530670	0	0	0	1
-131.971283	-27.764696	-155.424759	0	0	0	1
-131.126328	-19.015079	-154.761154	0	0	0	1
-131.431198	-18.220148	-154.991714	0	0	0	1
-131.730469	-17.421352	-155.222336	0	0	0	1
-132.024109	-16.618732	-155.452972	0	0	0	1
-132.312073	-15.812335	-155.683655	0	0	0	1
-134.349686	-28.720308	-157.124023	0	0	0.029199523	0.9995736
-132.594284	-15.002200	-155.914368	0	0	0	1
-132.870728	-14.188375	-156.145081	0	0	0	1
-133.141327	-13.370906	-156.375809	0	0	0	1
-133.406067	-12.549833	-156.606537	0	0	0	1
-133.664871	-11.725208	-156.837234	0	0	0	1
-136.786545	-29.710848	-158.869751	0	0	0	1
-133.917709	-10.897079	-157.067932	0	0	0	1
-134.164520	-10.065489	-157.298569	0	0	0	1
-134.405289	-9.230489	-157.529175	0	0	0	1
-134.639938	-8.392127	-157.759735	0	0	-0.070737201	0.99749499
-134.868439	-7.550452	-157.990250	0	0	-0.070737201	0.99749499
-139.283722	-30.737671	-160.663513	0	0	0	1
-135.090759	-6.705514	-158.220688	0	0	-0.070737201	0.99749499
-135.306839	-5.857364	-158.451050	0	0	-0.070737201	0.99749499
-135.516632	-5.006053	-158.681320	0	0	-0.070737201	0.99749499
-135.720108	-4.151631	-158.911499	0	0	-0.070737201	0.99749499
-135.917206	-3.294154	-159.141571	0	0	-0.070737201	0.99749499
-141.843216	-31.802208	-162.507019	0	0	0	1
-136.107910	-2.433667	-159.371536	0	0	-0.070737201	0.99749499
-136.292175	-1.570230	-159.601379	0	0	0	1
-136.469940	-0.703897	-159.831085	0	0	0	1
-136.641174	0.165284	-160.060638	0	0	0	1
-144.467148	-32.905949	-164.402023	0	0	0	1
-136.805847	1.037247	-160.290070	0	0	0	1
-136.963913	1.911951	-160.519318	0	0	0	1
-137.115326	2.789330	-160.748413	0	0	0	1
-137.260071	3.669331	-160.977325	0	0	0	1
-137.398087	4.551896	-161.206055	0	0	0	1
-147.157639	-34.050453	-166.350342	0	0	0	1
-137.529343	5.436967	-161.434601	0	0	0	1
-137.653809	6.324492	-161.662918	0	0	0	1
-137.771439	7.214404	-161.891022	0	0	0	1
-137.882202	8.106648	-162.118927	0	0	0	1
-149.916885	-35.237354	-168.353851	0	0	0	1
-137.986069	9.001169	-162.346588	0	0	0	1
-138.083008	9.897901	-162.574005	0	0	0	1
-138.172974	10.796789	-162.801178	0	0	0	1
-138.255951	11.697765	-163.028091	0	0	0	1
-138.331894	12.600774	-163.254761	0	0	0	1
-152.747314	-36.468357	-170.414581	0	0	0	1
-138.400757	13.505757	-163.481125	0	0	0	1
-138.462540	14.412642	-163.707214	0	0	-0.16996714	0.98544973
-138.517181	15.321372	-163.933014	0	0	-0.16996714	0.98544973
-138.564682	16.231888	-164.158508	0	0	-0.16996714	0.98544973
-155.651352	-37.745258	-172.534622	0	0	0	1
-138.604996	17.144127	-164.383682	0	0	-0.16996714	0.98544973
-138.638092	18.058012	-164.608551	0	0	-0.16996714	0.98544973
-138.663956	18.973494	-164.833084	0	0	-0.16996714	0.98544973
-138.682541	19.890505	-165.057281	0	0	-0.16996714	0.98544973
-138.693832	20.808975	-165.281128	0	0	-0.16996714	0.98544973
-158.631424	-39.069916	-174.716034	0	0	0	1
-138.697800	21.728846	-165.504623	0	0	-0.16996714	0.98544973
-138.694427	22.650045	-165.727753	0	0	-0.16996714	0.98544973
-138.683685	23.572510	-165.950500	0	0	-0.16996714	0.98544973
-138.665543	24.496174	-166.172882	0	0	-0.16996714	0.98544973
-138.639969	25.420969	-166.394852	0	0	-0.16996714	0.98544973
-161.690308	-40.444313	-176.961182	0	0	0	1
-138.606964	26.346828	-166.616440	0	0	-0.16996714	0.98544973
-138.566498	27.273687	-166.837601	0	0	0	1
-138.518539	28.201481	-167.058365	0	0	0	1
-138.463089	29.130127	-167.278687	0	0	0	1
-138.400101	30.059576	-167.498596	0	0	0	1
-164.830597	-41.870487	-179.272324	0	0	0	1
-138.329575	30.989748	-167.718048	0	0	0	1
-138.251480	31.920576	-167.937042	0	0	0	1
-138.165802	32.851986	-168.155579	0	0	0	1
-138.072525	33.783916	-168.373657	0	0	0	1
-137.971619	34.716297	-168.591248	0	0	0	1
-168.055267	-43.350601	-181.651978	0	0	0	1
-137.863113	35.649055	-168.808350	0	0	0	1
-137.746933	36.582115	-169.024963	0	0	0	1
-137.623108	37.515415	-169.241074	0	0	0	1
-137.491608	38.448883	-169.456680	0	0	0	1
-137.352417	39.382442	-169.671753	0	0	-0.26749883	0.96355818
-171.367142	-44.886894	-184.102631	0	0	0	1
-137.205521	40.316025	-169.886292	0	0	-0.26749883	0.96355818
-137.050934	41.249561	-170.100296	0	0	-0.26749883	0.96355818
-136.888611	42.182980	-170.313766	0	0	-0.26749883	0.96355818
-136.718552	43.116203	-170.526672	0	0	-0.26749883	0.96355818
-136.540771	44.049164	-170.739014	0	0	-0.26749883	0.96355818
-174.769562	-46.481770	-186.627075	0	0	0	1
-136.355225	44.981785	-170.950790	0	0	-0.26749883	0.96355818
-136.161926	45.913998	-171.161987	0	0	-0.26749883	0.96355818
-135.960876	46.845730	-171.372604	0	0	-0.26749883	0.96355818
-135.752045	47.776917	-171.582611	0	0	-0.26749883	0.96355818
-135.535446	48.707466	-171.792007	0	0	-0.26749883	0.96355818
-178.265396	-48.137653	-189.227905	0	0	0	1
-135.311066	49.637318	-172.000809	0	0	-0.26749883	0.96355818
-135.078903	50.566395	-172.208984	0	0	-0.26749883	0.96355818
-134.838959	51.494625	-172.416519	0	0	-0.26749883	0.96355818
-134.591217	52.421940	-172.623428	0	0	-0.26749883	0.96355818
-134.335693	53.348251	-172.829697	0	0	-0.26749883	0.96355818
-134.072372	54.273506	-173.035294	0	0	-0.26749883	0.96355818
-181.858185	-49.857174	-191.908157	0	0	0	1
-133.801270	55.197609	-173.240234	0	0	-0.26749883	0.96355818
-133.522369	56.120506	-173.444519	0	0	-0.26749883	0.96355818
-133.235687	57.042107	-173.648117	0	0	0	1
-132.941223	57.962349	-173.851028	0	0	0	1
-132.638962	58.881153	-174.053238	0	0	0	1
-185.551361	-51.643044	-194.670807	0	0	0	1
-132.328934	59.798439	-174.254761	0	0	0	1
-132.011124	60.714153	-174.455566	0	0	0	1
-131.685562	61.628197	-174.655655	0	0	0	1
-131.352219	62.540501	-174.855011	0	0	0	1
-131.011124	63.451012	-175.053635	0	0	0	1
-130.662292	64.359634	-175.251526	0	0	-0.36235775	0.93203909
-189.348480	-53.498112	-197.518982	0	0	0	1
-130.305710	65.266296	-175.448654	0	0	-0.36235775	0.93203909
-129.941406	66.170929	-175.645050	0	0	-0.36235775	0.93203909
-129.569397	67.073448	-175.840652	0	0	-0.36235775	0.93203909
-129.189651	67.973801	-176.035507	0	0	-0.36235775	0.93203909
-128.802231	68.871902	-176.229568	0	0	-0.36235775	0.93203909
-128.407120	69.767670	-176.422836	0	0	-0.36235775	0.93203909
-193.253342	-55.425381	-200.456024	0	0	0	1
-128.004349	70.661034	-176.615311	0	0	-0.36235775	0.93203909
-127.593903	71.551926	-176.806992	0	0	-0.36235775	0.93203909
-127.175827	72.440269	-176.997849	0	0	-0.36235775	0.93203909
-126.750122	73.325996	-177.187897	0	0	-0.36235775	0.93203909
-126.316818	74.209015	-177.377121	0	0	-0.36235775	0.93203909
-125.875916	75.089272	-177.565506	0	0	-0.36235775	0.93203909
-197.269852	-57.427979	-203.485336	0	0	0	1
-125.427437	75.966675	-177.753067	0	0	-0.36235775	0.93203909
-124.971405	76.841171	-177.939758	0	0	-0.36235775	0.93203909
-124.507843	77.712677	-178.125595	0	0	-0.36235775	0.93203909
-124.036758	78.581116	-178.310593	0	0	-0.36235775	0.93203909
-123.558189	79.446426	-178.494690	0	0	-0.36235775	0.93203909
-123.072144	80.308517	-178.677917	0	0	-0.36235775	0.93203909
-201.402100	-59.509220	-206.610535	0	0	0	1
-122.578659	81.167336	-178.860260	0	0	-0.36235775	0.93203909
-122.077736	82.022797	-179.041733	0	0	-0.36235775	0.93203909
-121.569420	82.874825	-179.222290	0	0	-0.36235775	0.93203909
-121.053726	83.723373	-179.401947	0	0	-0.36235775	0.93203909
-120.530685	84.568344	-179.580688	0	0	-0.36235775	0.93203909
-120.000320	85.409676	-179.758499	0	0	0	1
-119.462662	86.247292	-179.935379	0	0	0	1
-205.654327	-61.672546	-209.835373	0	0	0	1
-118.917740	87.081131	-180.111343	0	0	0	1
-118.365570	87.911110	-180.286346	0	0	0	1
-117.806198	88.737160	-180.460434	0	0	0	1
-117.239647	89.559219	-180.633530	0	0	-0.45359611	0.89120736
-116.665947	90.377213	-180.805679	0	0	-0.45359611	0.89120736
-116.085136	91.191078	-180.976868	0	0	-0.45359611	0.89120736
-115.497246	92.000725	-181.147079	0	0	-0.45359611	0.89120736
-210.031006	-63.921608	-213.163803	0	0	0	1
-114.902298	92.806107	-181.316299	0	0	-0.45359611	0.89120736
-114.300339	93.607140	-181.484543	0	0	-0.45359611	0.89120736
41.086800	-12.898810	-82.233849	0	0	0.99913515	0.041580682
-113.691406	94.403770	-181.651779	0	0	-0.45359611	0.89120736
42.418983	-13.341237	-83.021912	0	0	0.99913515	0.041580682
-113.075523	95.195923	-181.818024	0	0	-0.45359611	0.89120736
-112.452736	95.983513	-181.983261	0	0	-0.45359611	0.89120736
43.637772	-12.516070	-82.415672	0	0	0	1
-111.823074	96.766502	-182.147476	0	0	-0.45359611	0.89120736
43.915386	-13.812215	-83.879074	0	0	0	1
-111.186592	97.544800	-182.310654	0	0	-0.45359611	0.89120736
-214.536270	-66.260109	-216.599625	0	0	0	1
-110.543304	98.318359	-182.472824	0	0	-0.45359611	0.89120736
45.362999	-14.305765	-84.749222	0	0	0	1
-109.893272	99.087082	-182.633957	0	0	-0.45359611	0.89120736
46.546177	-12.079702	-82.622978	0	0	0	1
-109.236519	99.850945	-182.794037	0	0	-0.45359611	0.89120736
46.761723	-14.820039	-85.630333	0	0	0	1
-108.573097	100.609848	-182.953079	0	0	-0.45359611	0.89120736
-107.903046	101.363731	-183.111069	0	0	-0.45359611	0.89120736
48.111629	-15.353170	-86.520409	0	0	0	1
-107.226395	102.112541	-183.268005	0	0	-0.45359611	0.89120736
-106.543205	102.856201	-183.423874	0	0	-0.45359611	0.89120736
49.892685	-11.577601	-82.861511	0	0	0.99913515	0.041580682
49.412930	-15.903393	-87.417595	0	0	0	1
-219.175385	-68.692139	-220.147385	0	0	0	1
-105.853516	103.594673	-183.578659	0	0	-0.45359611	0.89120736
50.665962	-16.468939	-88.320061	0	0	0	1
-105.157364	104.327858	-183.732376	0	0	-0.45359611	0.89120736
-104.454796	105.055710	-183.885010	0	0	-0.45359611	0.89120736
51.871231	-17.048119	-89.226105	0	0	0.99913515	0.041580682
-103.745865	105.778152	-184.036545	0	0	-0.45359611	0.89120736
-103.030609	106.495148	-184.186996	0	0	-0.45359611	0.89120736
53.784695	-10.993656	-83.138924	0	0	0.99913515	0.041580682
53.029324	-17.639296	-90.134087	0	0	0.99913515	0.041580682
-102.309082	107.206619	-184.336334	0	0	-0.45359611	0.89120736
-101.581329	107.912506	-184.484558	0	0	-0.45359611	0.89120736
54.140945	-18.240879	-91.042465	0	0	0.99913515	0.041580682
-100.847389	108.612747	-184.631683	0	0	-0.45359611	0.89120736
-223.952988	-71.221832	-223.811356	0	0	0	1
55.206894	-18.851379	-91.949814	0	0	0	1
-100.107323	109.307281	-184.777695	0	0	0	1
-99.361183	109.996040	-184.922562	0	0	0	1
56.228043	-19.469345	-92.854774	0	0	0	1
-98.609009	110.678986	-185.066299	0	0	0	1
58.367710	-10.306034	-83.465584	0	0	0	1
57.205357	-20.093378	-93.756065	0	0	0.99913515	0.041580682
-97.850853	111.356049	-185.208908	0	0	0	1
-97.086784	112.027145	-185.350372	0	0	-0.54030229	0.84147099
58.139832	-20.722198	-94.652527	0	0	0.99913515	0.041580682
-96.316833	112.692253	-185.490692	0	0	-0.54030229	0.84147099
59.032551	-21.354542	-95.543053	0	0	0	1
-95.541061	113.351303	-185.629868	0	0	-0.54030229	0.84147099
-94.759514	114.004234	-185.767868	0	0	-0.54030229	0.84147099
59.884621	-21.989256	-96.426659	0	0	0	1
-228.874100	-73.853531	-227.596085	0	0	0	1
-93.972260	114.650993	-185.904694	0	0	-0.54030229	0.84147099
60.697174	-22.625225	-97.302406	0	0	0	1
-93.179352	115.291519	-186.040375	0	0	-0.54030229	0.84147099
61.471382	-23.261438	-98.169479	0	0	0.99913515	0.041580682
-92.380836	115.925751	-186.174866	0	0	-0.54030229	0.84147099
63.844090	-9.484375	-83.855927	0	0	0	1
-91.576767	116.553658	-186.308182	0	0	-0.54030229	0.84147099
62.208424	-23.896923	-99.027092	0	0	0	1
-90.767212	117.175148	-186.440308	0	0	-0.54030229	0.84147099
62.909527	-24.530769	-99.874557	0	0	0	1
-89.952217	117.790207	-186.571243	0	0	-0.54030229	0.84147099
63.575874	-25.162172	-100.711288	0	0	0	1
-89.131859	118.398758	-186.700989	0	0	-0.54030229	0.84147099
64.208687	-25.790339	-101.536705	0	0	0.99913515	0.041580682
-88.306168	119.000755	-186.829529	0	0	-0.54030229	0.84147099
64.809158	-26.414558	-102.350319	0	0	0.99913515	0.041580682
-87.475220	119.596146	-186.956863	0	0	-0.54030229	0.84147099
-233.944199	-76.591873	-231.506470	0	0	0.1288445	0.99166481
65.378502	-27.034172	-103.151703	0	0	0.99913515	0.041580682
-86.639084	120.184868	-187.082977	0	0	-0.54030229	0.84147099
65.917885	-27.648592	-103.940498	0	0	0.99913515	0.041580682
-85.797798	120.766891	-187.207886	0	0	-0.54030229	0.84147099
66.428490	-28.257269	-104.716385	0	0	0.99913515	0.041580682
-84.951439	121.342148	-187.331573	0	0	-0.54030229	0.84147099
66.911453	-28.859695	-105.479080	0	0	0	1
70.503563	-8.485207	-84.330597	0	0	0	1
-84.100060	121.910591	-187.454041	0	0	-0.54030229	0.84147099
67.367905	-29.455425	-106.228371	0	0	0.99913515	0.041580682
-83.243721	122.472183	-187.575256	0	0	-0.54030229	0.84147099
67.798958	-30.044062	-106.964081	0	0	0	1
-82.382492	123.026871	-187.695236	0	0	-0.54030229	0.84147099
68.205688	-30.625225	-107.686050	0	0	0	1
-81.516426	123.574593	-187.813995	0	0	-0.54030229	0.84147099
68.589142	-31.198608	-108.394211	0	0	0.99913515	0.041580682
68.950348	-31.763924	-109.088463	0	0	0	1
-80.645599	124.115318	-187.931503	0	0	-0.54030229	0.84147099
69.290306	-32.320911	-109.768784	0	0	0.99913515	0.041580682
-79.770065	124.648987	-188.047760	0	0	-0.54030229	0.84147099
69.609970	-32.869350	-110.435143	0	0	0	1
-78.889885	125.175568	-188.162750	0	0	-0.54030229	0.84147099
-239.168335	-79.441574	-235.547211	0	0	0.1288445	0.99166481
69.910286	-33.409084	-111.087593	0	0	0	1
70.192154	-33.939911	-111.726143	0	0	0.99913515	0.041580682
-78.005135	125.695007	-188.276505	0	0	-0.54030229	0.84147099
70.456444	-34.461735	-112.350868	0	0	0.99913515	0.041580682
-77.115868	126.207253	-188.388977	0	0	-0.54030229	0.84147099
70.704010	-34.974426	-112.961838	0	0	0	1
70.935646	-35.477917	-113.559166	0	0	0	1
-76.222160	126.712280	-188.500183	0	0	-0.54030229	0.84147099
71.152153	-35.972134	-114.142960	0	0	0	1
71.354271	-36.457039	-114.713356	0	0	0	1
-75.324074	127.210030	-188.610138	0	0	-0.54030229	0.84147099
71.542725	-36.932598	-115.270470	0	0	0	1
71.718216	-37.398804	-115.814476	0	0	0	1
-74.421669	127.700462	-188.718796	0	0	-0.54030229	0.84147099
71.881393	-37.855675	-116.345543	0	0	0.99913515	0.041580682
72.032906	-38.303223	-116.863815	0	0	0	1
78.776413	-7.243973	-84.920265	0	0	0	1
-73.515030	128.183548	-188.826172	0	0	0	1
72.173378	-38.741463	-117.369476	0	0	0	1
72.303368	-39.170464	-117.862724	0	0	0	1
-72.604210	128.659225	-188.932266	0	0	0	1
72.423447	-39.590263	-118.343727	0	0	0.99913515	0.041580682
72.534157	-40.000919	-118.812683	0	0	0	1
72.635994	-40.402523	-119.269798	0	0	0	1
-71.689278	129.127472	-189.037064	0	0	0	1
72.729454	-40.795128	-119.715256	0	0	0.99913515	0.041580682
72.815002	-41.178833	-120.149261	0	0	0.99913515	0.041580682
72.893082	-41.553722	-120.572006	0	0	0.99913515	0.041580682
-70.770294	129.588226	-189.140579	0	0	0	1
72.964119	-41.919891	-120.983704	0	0	0	1
73.028511	-42.277447	-121.384560	0	0	0.99913515	0.041580682
73.086639	-42.626488	-121.774757	0	0	0	1
-244.552963	-82.407860	-239.724014	0	0	0	1
-69.847351	130.041473	-189.242798	0	0	0	1
73.138878	-42.967110	-122.154510	0	0	0.99913515	0.041580682
73.185562	-43.299454	-122.524025	0	0	0.99913515	0.041580682
73.227043	-43.623592	-122.883476	0	0	0	1
73.263603	-43.939674	-123.233086	0	0	0	1
-68.920502	130.487152	-189.343704	0	0	0	1
73.295578	-44.247791	-123.573029	0	0	0	1
73.811523	-43.720959	-123.707275	0	0	0.99913515	0.041580682
-67.989815	130.925247	-189.443314	0	0	0	1
74.381828	-43.089588	-123.818443	0	0	0.99913515	0.041580682
-67.055367	131.355713	-189.541611	0	0	0	1
74.947174	-42.454308	-123.930908	0	0	0.99913515	0.041580682
-66.117226	131.778519	-189.638596	0	0	0	1
75.507523	-41.815166	-124.044685	0	0	0.99913515	0.041580682
-65.175453	132.193604	-189.734268	0	0	0	1
76.062859	-41.172207	-124.159767	0	0	0.99913515	0.041580682
76.613144	-40.525475	-124.276138	0	0	0.99913515	0.041580682
-64.230141	132.600952	-189.828598	0	0	0	1
77.158348	-39.875019	-124.393799	0	0	0.99913515	0.041580682
-63.281342	133.000534	-189.921616	0	0	0	1
77.698463	-39.220871	-124.512749	0	0	0.99913515	0.041580682
-62.329132	133.392319	-190.013321	0	0	0	1
78.233444	-38.563084	-124.632980	0	0	0.99913515	0.041580682
-61.373592	133.776260	-190.103668	0	0	0	1
78.763268	-37.901707	-124.754494	0	0	0.99913515	0.041580682
79.287918	-37.236774	-124.877266	0	0	0.99913515	0.041580682
-60.414783	134.152328	-190.192703	0	0	0	1
-250.103317	-85.495850	-244.041870	0	0	0	1
79.807358	-36.568340	-125.001312	0	0	0.99913515	0.041580682
-59.452789	134.520493	-190.280396	0	0	0	1
80.321571	-35.896450	-125.126617	0	0	0.99913515	0.041580682
89.330254	-5.660506	-85.672516	0	0	0	1
-58.487679	134.880722	-190.366730	0	0	0	1
80.830536	-35.221142	-125.253189	0	0	0.99913515	0.041580682
-57.519524	135.233002	-190.451721	0	0	0	1
81.334213	-34.542473	-125.381004	0	0	0.99913515	0.041580682
81.832603	-33.860477	-125.510071	0	0	0.99913515	0.041580682
-56.548393	135.577286	-190.535385	0	0	0	1
82.325661	-33.175205	-125.640373	0	0	0.99913515	0.041580682
-55.574375	135.913559	-190.617661	0	0	0	1
82.813370	-32.486710	-125.771919	0	0	0.99913515	0.041580682
-54.597530	136.241776	-190.698608	0	0	0	1
83.295715	-31.795031	-125.904694	0	0	0.99913515	0.041580682
-53.617939	136.561935	-190.778183	0	0	0	1
83.772675	-31.100216	-126.038689	0	0	0.99913515	0.041580682
84.244225	-30.402313	-126.173912	0	0	0.99913515	0.041580682
-52.635677	136.873993	-190.856400	0	0	0	1
84.710342	-29.701372	-126.310356	0	0	0.99913515	0.041580682
-51.650818	137.177917	-190.933258	0	0	0	1
85.171005	-28.997435	-126.447998	0	0	0.99913515	0.041580682
-50.663441	137.473694	-191.008743	0	0	0	1
85.626205	-28.290552	-126.586853	0	0	0.99913515	0.041580682
86.075912	-27.580772	-126.726906	0	0	0.99913515	0.041580682
-49.681671	137.790024	-191.040268	0	0	0	1
86.520111	-26.868137	-126.868149	0	0	0.99913515	0.041580682
-48.702404	138.117401	-191.042084	0	0	0	1
-255.825684	-88.711143	-248.506516	0	0	0	1
86.958786	-26.152702	-127.010590	0	0	0.99913515	0.041580682
-47.720249	138.436737	-191.042496	0	0	0	1
87.391922	-25.434505	-127.154205	0	0	0.99913515	0.041580682
-46.735275	138.748001	-191.041504	0	0	0	1
87.819489	-24.713610	-127.299004	0	0	0.99913515	0.041580682
88.241478	-23.990047	-127.444962	0	0	0.99913515	0.041580682
-45.747559	139.051163	-191.039139	0	0	0	1
88.657875	-23.263874	-127.592102	0	0	0.99913515	0.041580682
-44.757168	139.346191	-191.035370	0	0	0	1
89.068665	-22.535137	-127.740395	0	0	0.99913515	0.041580682
-43.764187	139.633072	-191.030228	0	0	0	1
89.473824	-21.803885	-127.889839	0	0	0.99913515	0.041580682
-42.768692	139.911774	-191.023697	0	0	-0.62160997	0.7833269
89.873344	-21.070169	-128.040436	0	0	0.99913515	0.041580682
90.267212	-20.334034	-128.192169	0	0	0.99913515	0.041580682
-41.770748	140.182266	-191.015778	0	0	-0.62160997	0.7833269
90.655403	-19.595533	-128.345032	0	0	0.99913515	0.041580682
-40.770439	140.444519	-191.006470	0	0	-0.62160997	0.7833269
91.037918	-18.854708	-128.499039	0	0	0.99913515	0.041580682
-39.767841	140.698532	-190.995758	0	0	-0.62160997	0.7833269
91.414734	-18.111607	-128.654160	0	0	0.99913515	0.041580682
91.785843	-17.366293	-128.810410	0	0	0.99913515	0.041580682
-38.763035	140.944275	-190.983673	0	0	-0.62160997	0.7833269
92.151230	-16.618797	-128.967773	0	0	0.99913515	0.041580682
-37.756088	141.181717	-190.970215	0	0	-0.62160997	0.7833269
92.510887	-15.869177	-129.126221	0	0	0.99913515	0.041580682
-36.747082	141.410843	-190.955338	0	0	-0.62160997	0.7833269
92.864799	-15.117482	-129.285782	0	0	0.99913515	0.041580682
93.212959	-14.363754	-129.446442	0	0	0.99913515	0.041580682
-35.736095	141.631622	-190.939102	0	0	-0.62160997	0.7833269
-261.726562	-92.059586	-253.123947	0	0	0	1
103.260353	-3.570476	-86.665421	0	0	0	1
93.555351	-13.608056	-129.608170	0	0	0.99913515	0.041580682
-34.723202	141.844055	-190.921463	0	0	-0.62160997	0.7833269
93.891975	-12.850421	-129.770996	0	0	0.99913515	0.041580682
-33.708485	142.048126	-190.902435	0	0	-0.62160997	0.7833269
94.222809	-12.090915	-129.934891	0	0	0.99913515	0.041580682
94.547859	-11.329569	-130.099854	0	0	0.99913515	0.041580682
-32.692017	142.243790	-190.882034	0	0	-0.62160997	0.7833269
94.867096	-10.566446	-130.265869	0	0	0.99913515	0.041580682
-31.673876	142.431046	-190.860245	0	0	-0.62160997	0.7833269
95.180534	-9.801592	-130.432938	0	0	0.99913515	0.041580682
-30.654148	142.609863	-190.837097	0	0	-0.62160997	0.7833269
95.488152	-9.035048	-130.601074	0	0	0.99913515	0.041580682
-29.936785	142.735382	-190.812103	0	0	-0.62160997	0.7833269
95.789948	-8.266876	-130.770233	0	0	0.99913515	0.041580682
-29.392607	142.831680	-190.785446	0	0	-0.62160997	0.7833269
96.085907	-7.497115	-130.940430	0	0	0.99913515	0.041580682
-28.847841	142.925507	-190.757431	0	0	-0.62160997	0.7833269
-28.302500	143.016907	-190.728027	0	0	-0.62160997	0.7833269
96.376045	-6.725818	-131.111664	0	0	0.99913515	0.041580682
-27.756578	143.105850	-190.697250	0	0	-0.62160997	0.7833269
96.660332	-5.953033	-131.283905	0	0	0.99913515	0.041580682
-27.210085	143.192322	-190.665100	0	0	-0.62160997	0.7833269
-26.663019	143.276337	-190.631577	0	0	-0.62160997	0.7833269
96.938774	-5.178822	-131.457169	0	0	0.99913515	0.041580682
-26.115387	143.357880	-190.596680	0	0	-0.62160997	0.7833269
97.211365	-4.403206	-131.631439	0	0	0.99913515	0.041580682
-25.567192	143.436951	-190.560410	0	0	-0.62160997	0.7833269
97.478104	-3.626258	-131.806702	0	0	0.99913515	0.041580682
-25.018435	143.513550	-190.522766	0	0	-0.62160997	0.7833269
-24.469120	143.587677	-190.483765	0	0	-0.62160997	0.7833269
97.738983	-2.848019	-131.982971	0	0	0.99913515	0.041580682
-23.919252	143.659317	-190.443390	0	0	-0.62160997	0.7833269
97.993996	-2.068546	-132.160217	0	0	0.99913515	0.041580682
-23.368834	143.728455	-190.401642	0	0	-0.62160997	0.7833269
-22.817869	143.795105	-190.358536	0	0	-0.62160997	0.7833269
98.243149	-1.287870	-132.338440	0	0	0.99913515	0.041580682
-22.266359	143.859268	-190.314072	0	0	-0.62160997	0.7833269
98.486427	-0.506054	-132.517639	0	0	0.99913515	0.041580682
-21.714312	143.920898	-190.268234	0	0	-0.62160997	0.7833269
98.723839	0.276858	-132.697815	0	0	0.99913515	0.041580682
-21.161728	143.980042	-190.221054	0	0	-0.62160997	0.7833269
-20.608612	144.036667	-190.172501	0	0	-0.62160997	0.7833269
98.955383	1.060815	-132.878937	0	0	0.99913515	0.041580682
-267.812012	-95.547112	-257.899872	0	0	0	1
-20.054966	144.090775	-190.122604	0	0	-0.62160997	0.7833269
99.181061	1.845769	-133.061005	0	0	0.99913515	0.041580682
-19.500797	144.142349	-190.071350	0	0	-0.62160997	0.7833269
-18.946106	144.191391	-190.018738	0	0	-0.62160997	0.7833269
99.400856	2.631670	-133.244034	0	0	0.99913515	0.041580682
-18.390900	144.237885	-189.964798	0	0	-0.62160997	0.7833269
99.614784	3.418473	-133.427994	0	0	0.99913515	0.041580682
-17.835180	144.281845	-189.909500	0	0	-0.62160997	0.7833269
99.822838	4.206123	-133.612869	0	0	0.99913515	0.041580682
-17.278952	144.323257	-189.852844	0	0	-0.62160997	0.7833269
-16.722219	144.362122	-189.794861	0	0	-0.62160997	0.7833269
100.025024	4.994578	-133.798676	0	0	0.99913515	0.041580682
-16.164986	144.398407	-189.735535	0	0	-0.62160997	0.7833269
100.221344	5.783790	-133.985397	0	0	0.99913515	0.041580682
-15.607258	144.432129	-189.674866	0	0	-0.62160997	0.7833269
100.411781	6.573704	-134.173019	0	0	0.99913515	0.041580682
-15.049039	144.463272	-189.612869	0	0	-0.62160997	0.7833269
-14.490333	144.491837	-189.549530	0	0	-0.62160997	0.7833269
100.596367	7.364278	-134.361557	0	0	0.99913515	0.041580682
-13.931145	144.517807	-189.484863	0	0	-0.62160997	0.7833269
100.775078	8.155460	-134.550980	0	0	0.99913515	0.041580682
-13.371479	144.541183	-189.418884	0	0	-0.62160997	0.7833269
-12.811341	144.561966	-189.351547	0	0	-0.62160997	0.7833269
100.947945	8.947206	-134.741287	0	0	0.99913515	0.041580682
-12.250736	144.580124	-189.282928	0	0	-0.62160997	0.7833269
101.114944	9.739463	-134.932465	0	0	0.99913515	0.041580682
-11.689668	144.595673	-189.212967	0	0	-0.62160997	0.7833269
101.276085	10.532184	-135.124527	0	0	0.99913515	0.041580682
-11.128142	144.608582	-189.141678	0	0	-0.62160997	0.7833269
-10.566165	144.618866	-189.069092	0	0	-0.62160997	0.7833269
101.431389	11.325328	-135.317444	0	0	0.99913515	0.041580682
-10.003740	144.626511	-188.995193	0	0	-0.62160997	0.7833269
101.580849	12.118842	-135.511215	0	0	0.99913515	0.041580682
-9.440874	144.631500	-188.919968	0	0	-0.62160997	0.7833269
101.724464	12.912676	-135.705826	0	0	0.99913515	0.041580682
-8.877572	144.633835	-188.843460	0	0	-0.62160997	0.7833269
-8.313841	144.633514	-188.765640	0	0	-0.62160997	0.7833269
101.862251	13.706788	-135.901291	0	0	0.99913515	0.041580682
-7.749685	144.630524	-188.686523	0	0	-0.62160997	0.7833269
101.994209	14.501126	-136.097580	0	0	0.99913515	0.041580682
-7.185111	144.624832	-188.606110	0	0	-0.69670669	0.71735611
-6.620124	144.616470	-188.524399	0	0	-0.69670669	0.71735611
102.120354	15.295648	-136.294693	0	0	0.99913515	0.041580682
-6.054731	144.605392	-188.441391	0	0	-0.69670669	0.71735611
102.248787	16.087614	-136.480423	0	0	0.99913515	0.041580682
-5.488938	144.591629	-188.357117	0	0	-0.69670669	0.71735611
102.372406	16.879457	-136.665527	0	0	0.99913515	0.041580682
-4.922750	144.575150	-188.271545	0	0	-0.69670669	0.71735611
-4.356178	144.555923	-188.184708	0	0	-0.69670669	0.71735611
102.490295	17.671450	-136.851379	0	0	0.99913515	0.041580682
-3.789222	144.533981	-188.096573	0	0	-0.69670669	0.71735611
102.602455	18.463545	-137.037994	0	0	0.99913515	0.041580682
-3.221894	144.509308	-188.007172	0	0	-0.69670669	0.71735611
102.708900	19.255693	-137.225342	0	0	0.99913515	0.041580682
-2.654201	144.481873	-187.916504	0	0	-0.69670669	0.71735611
-2.086148	144.451675	-187.824570	0	0	-0.69670669	0.71735611
102.809631	20.047852	-137.413437	0	0	0.99913515	0.041580682
-274.088806	-99.180099	-262.840698	0	0	0	1
-1.517742	144.418716	-187.731369	0	0	-0.69670669	0.71735611
102.904663	20.839975	-137.602249	0	0	0.99913515	0.041580682
-0.948992	144.382980	-187.636917	0	0	-0.69670669	0.71735611
102.993996	21.632019	-137.791794	0	0	0.99913515	0.041580682
-0.379905	144.344452	-187.541229	0	0	-0.69670669	0.71735611
0.189513	144.303131	-187.444260	0	0	-0.69670669	0.71735611
103.077652	22.423941	-137.982040	0	0	0.99913515	0.041580682
0.759252	144.259018	-187.346054	0	0	-0.69670669	0.71735611
103.155632	23.215693	-138.173004	0	0	0.99913515	0.041580682
1.329307	144.212067	-187.246582	0	0	-0.69670669	0.71735611
1.899665	144.162308	-187.145905	0	0	-0.69670669	0.71735611
103.227943	24.007233	-138.364655	0	0	0.99913515	0.041580682
2.470321	144.109711	-187.043976	0	0	-0.69670669	0.71735611
103.294601	24.798515	-138.556992	0	0	0.99913515	0.041580682
3.041267	144.054276	-186.940811	0	0	-0.69670669	0.71735611
103.355621	25.589497	-138.750031	0	0	0.99913515	0.041580682
3.612494	143.995987	-186.836426	0	0	-0.69670669	0.71735611
4.183990	143.934830	-186.730820	0	0	-0.69670669	0.71735611
103.410988	26.380135	-138.943726	0	0	0.99913515	0.041580682
4.755750	143.870804	-186.624008	0	0	-0.69670669	0.71735611
103.460747	27.170382	-139.138092	0	0	0.99913515	0.041580682
5.327765	143.803879	-186.515961	0	0	-0.69670669	0.71735611
103.504890	27.960197	-139.333115	0	0	0.99913515	0.041580682
5.900022	143.734085	-186.406708	0	0	-0.69670669	0.71735611
6.472515	143.661377	-186.296249	0	0	-0.69670669	0.71735611
103.543442	28.749537	-139.528793	0	0	0.99913515	0.041580682
7.045232	143.585754	-186.184586	0	0	-0.69670669	0.71735611
103.576408	29.538359	-139.725128	0	0	0.99913515	0.041580682
122.496315	-0.684369	-88.036507	0	0	0	1
7.618167	143.507217	-186.071716	0	0	-0.69670669	0.71735611
103.603790	30.326618	-139.922073	0	0	0.99913515	0.041580682
8.191306	143.425735	-185.957657	0	0	-0.69670669	0.71735611
8.764639	143.341324	-185.842422	0	0	-0.69670669	0.71735611
103.625618	31.114277	-140.119675	0	0	0.99913515	0.041580682
9.338159	143.253952	-185.725998	0	0	-0.69670669	0.71735611
103.641899	31.901285	-140.317886	0	0	0.99913515	0.041580682
9.911853	143.163620	-185.608398	0	0	-0.69670669	0.71735611
103.652649	32.687607	-140.516708	0	0	0.99913515	0.041580682
10.485714	143.070312	-185.489609	0	0	-0.69670669	0.71735611
11.059724	142.974014	-185.369659	0	0	-0.69670669	0.71735611
103.657875	33.473198	-140.716141	0	0	0.99913515	0.041580682
11.633878	142.874725	-185.248550	0	0	-0.69670669	0.71735611
103.657600	34.258015	-140.916168	0	0	0.99913515	0.041580682
12.208161	142.772430	-185.126282	0	0	-0.69670669	0.71735611
103.651833	35.042015	-141.116776	0	0	0.99913515	0.041580682
12.782566	142.667130	-185.002838	0	0	-0.69670669	0.71735611
13.357074	142.558792	-184.878265	0	0	-0.69670669	0.71735611
103.640594	35.825161	-141.317978	0	0	0.99913515	0.041580682
13.931684	142.447418	-184.752518	0	0	-0.69670669	0.71735611
103.623894	36.607410	-141.519745	0	0	0.99913515	0.041580682
14.506373	142.332993	-184.625656	0	0	-0.69670669	0.71735611
103.601753	37.388721	-141.722092	0	0	0.99913515	0.041580682
15.081139	142.215515	-184.497650	0	0	-0.69670669	0.71735611
15.655962	142.094971	-184.368515	0	0	-0.69670669	0.71735611
103.574188	38.169056	-141.924988	0	0	0.99913515	0.041580682
16.230831	141.971344	-184.238251	0	0	-0.69670669	0.71735611
103.541214	38.948372	-142.128433	0	0	0.99913515	0.041580682
16.805735	141.844635	-184.106873	0	0	-0.69670669	0.71735611
103.502846	39.726624	-142.332413	0	0	0.99913515	0.041580682
17.380663	141.714828	-183.974365	0	0	-0.69670669	0.71735611
103.459106	40.503780	-142.536926	0	0	0.99913515	0.041580682
17.955593	141.581894	-183.840775	0	0	-0.69670669	0.71735611
18.530525	141.445862	-183.706039	0	0	-0.69670669	0.71735611
103.410004	41.279793	-142.741974	0	0	0.99913515	0.041580682
19.105434	141.306686	-183.570236	0	0	-0.69670669	0.71735611
103.355560	42.054630	-142.947540	0	0	0.99913515	0.041580682
19.680315	141.164368	-183.433319	0	0	-0.69670669	0.71735611
103.295799	42.828247	-143.153610	0	0	0.99913515	0.041580682
20.255146	141.018890	-183.295319	0	0	-0.69670669	0.71735611
20.829914	140.870270	-183.156250	0	0	-0.69670669	0.71735611
103.230736	43.600609	-143.360184	0	0	0.99913515	0.041580682
21.404613	140.718460	-183.016083	0	0	-0.69670669	0.71735611
103.160393	44.371670	-143.567245	0	0	0.99913515	0.041580682
21.979219	140.563477	-182.874847	0	0	-0.69670669	0.71735611
103.084778	45.141403	-143.774796	0	0	0.99913515	0.041580682
22.553724	140.405289	-182.732559	0	0	-0.69670669	0.71735611
103.003922	45.909760	-143.982834	0	0	-0.87758258	0.4794255
23.128107	140.243896	-182.589188	0	0	-0.69670669	0.71735611
-280.563721	-102.965157	-267.952850	0	0	0	1
23.702358	140.079300	-182.444778	0	0	-0.69670669	0.71735611
102.917847	46.676704	-144.191330	0	0	-0.87758258	0.4794255
24.276461	139.911469	-182.299316	0	0	-0.69670669	0.71735611
102.826561	47.442204	-144.400284	0	0	-0.82533563	0.56464246
24.850397	139.740402	-182.152802	0	0	-0.69670669	0.71735611
102.730087	48.206215	-144.609695	0	0	-0.82533563	0.56464246
25.424147	139.566101	-182.005249	0	0	-0.69670669	0.71735611
25.997704	139.388535	-181.856674	0	0	-0.69670669	0.71735611
102.628448	48.968700	-144.819550	0	0	-0.82533563	0.56464246
26.571051	139.207703	-181.707077	0	0	-0.69670669	0.71735611
102.521675	49.729630	-145.029831	0	0	-0.82533563	0.56464246
27.144171	139.023590	-181.556442	0	0	-0.69670669	0.71735611
102.409775	50.488960	-145.240555	0	0	-0.82533563	0.56464246
27.717035	138.836197	-181.404800	0	0	-0.69670669	0.71735611
102.292778	51.246658	-145.451675	0	0	-0.82533563	0.56464246
28.289644	138.645508	-181.252136	0	0	-0.69670669	0.71735611
28.861971	138.451508	-181.098495	0	0	-0.69670669	0.71735611
102.170700	52.002686	-145.663223	0	0	-0.82533563	0.56464246
29.434002	138.254211	-180.943832	0	0	-0.69670669	0.71735611
102.043571	52.757008	-145.875183	0	0	-0.82533563	0.56464246
30.005718	138.053574	-180.788193	0	0	-0.69670669	0.71735611
101.911407	53.509590	-146.087509	0	0	-0.82533563	0.56464246
30.577103	137.849594	-180.631561	0	0	-0.69670669	0.71735611
101.774231	54.260399	-146.300247	0	0	-0.82533563	0.56464246
31.148134	137.642273	-180.473969	0	0	-0.69670669	0.71735611
31.718800	137.431595	-180.315384	0	0	-0.69670669	0.71735611
101.632072	55.009392	-146.513351	0	0	-0.82533563	0.56464246
32.289082	137.217560	-180.155838	0	0	-0.69670669	0.71735611
101.484947	55.756542	-146.726807	0	0	-0.82533563	0.56464246
32.858955	137.000153	-179.995346	0	0	-0.69670669	0.71735611
101.332878	56.501812	-146.940643	0	0	-0.82533563	0.56464246
33.428410	136.779358	-179.833878	0	0	-0.69670669	0.71735611
101.175888	57.245167	-147.154831	0	0	-0.82533563	0.56464246
33.997414	136.555176	-179.671478	0	0	-0.69670669	0.71735611
34.565968	136.327591	-179.508133	0	0	-0.69670669	0.71735611
101.014015	57.986576	-147.369354	0	0	-0.82533563	0.56464246
35.134033	136.096588	-179.343857	0	0	-0.69670669	0.71735611
100.847267	58.726002	-147.584213	0	0	-0.82533563	0.56464246
35.701599	135.862167	-179.178650	0	0	-0.69670669	0.71735611
100.675674	59.463417	-147.799393	0	0	-0.82533563	0.56464246
36.268646	135.624313	-179.012527	0	0	-0.69670669	0.71735611
100.499268	60.198780	-148.014893	0	0	-0.82533563	0.56464246
36.835148	135.383026	-178.845490	0	0	-0.69670669	0.71735611
100.318062	60.932068	-148.230728	0	0	-0.82533563	0.56464246
37.401100	135.138290	-178.677536	0	0	-0.69670669	0.71735611
37.966465	134.890106	-178.508682	0	0	-0.69670669	0.71735611
100.132088	61.663242	-148.446823	0	0	-0.82533563	0.56464246
38.531227	134.638458	-178.338943	0	0	-0.69670669	0.71735611
99.941368	62.392269	-148.663239	0	0	-0.82533563	0.56464246
39.095371	134.383347	-178.168304	0	0	-0.69670669	0.71735611
99.745934	63.119125	-148.879929	0	0	-0.82533563	0.56464246
39.658871	134.124741	-177.996796	0	0	-0.69670669	0.71735611
99.545807	63.843769	-149.096893	0	0	-0.82533563	0.56464246
40.221714	133.862656	-177.824402	0	0	-0.69670669	0.71735611
40.783867	133.597061	-177.651154	0	0	-0.69670669	0.71735611
99.341011	64.566177	-149.314133	0	0	-0.82533563	0.56464246
41.345306	133.327972	-177.477036	0	0	-0.69670669	0.71735611
99.131577	65.286324	-149.531616	0	0	-0.82533563	0.56464246
41.906025	133.055374	-177.302063	0	0	-0.69670669	0.71735611
98.917526	66.004166	-149.749359	0	0	-0.82533563	0.56464246
42.465988	132.779251	-177.126251	0	0	-0.69670669	0.71735611
98.698891	66.719673	-149.967331	0	0	-0.82533563	0.56464246
43.025185	132.499619	-176.949600	0	0	-0.69670669	0.71735611
98.475700	67.432831	-150.185547	0	0	-0.82533563	0.56464246
43.583580	132.216431	-176.772095	0	0	-0.69670669	0.71735611
98.247971	68.143600	-150.403992	0	0	-0.82533563	0.56464246
44.141159	131.929718	-176.593781	0	0	-0.69670669	0.71735611
44.697895	131.639435	-176.414658	0	0	-0.69670669	0.71735611
98.015732	68.851944	-150.622635	0	0	-0.82533563	0.56464246
45.253773	131.345627	-176.234711	0	0	-0.69670669	0.71735611
97.779022	69.557854	-150.841507	0	0	-0.82533563	0.56464246
45.808762	131.048233	-176.053955	0	0	-0.69670669	0.71735611
97.537865	70.261276	-151.060547	0	0	-0.82533563	0.56464246
46.362839	130.747284	-175.872406	0	0	-0.69670669	0.71735611
97.292274	70.962204	-151.279800	0	0	-0.82533563	0.56464246
46.915981	130.442764	-175.690063	0	0	-0.69670669	0.71735611
97.042305	71.660606	-151.499222	0	0	-0.82533563	0.56464246
47.468170	130.134659	-175.506943	0	0	-0.69670669	0.71735611
48.019379	129.822952	-175.323044	0	0	-0.69670669	0.71735611
96.787956	72.356445	-151.718826	0	0	-0.82533563	0.56464246
48.569576	129.507675	-175.138382	0	0	-0.69670669	0.71735611
96.529274	73.049698	-151.938583	0	0	-0.82533563	0.56464246
49.118748	129.188782	-174.952957	0	0	-0.69670669	0.71735611
96.266281	73.740341	-152.158478	0	0	-0.82533563	0.56464246
49.666866	128.866302	-174.766769	0	0	-0.69670669	0.71735611
95.999008	74.428345	-152.378555	0	0	-0.82533563	0.56464246
50.213898	128.540207	-174.579834	0	0	-0.69670669	0.71735611
95.727486	75.113686	-152.598740	0	0	-0.82533563	0.56464246
50.759830	128.210495	-174.392166	0	0	-0.69670669	0.71735611
95.451736	75.796341	-152.819077	0	0	-0.82533563	0.56464246
51.304638	127.877159	-174.203766	0	0	-0.69670669	0.71735611
95.171806	76.476280	-153.039520	0	0	-0.82533563	0.56464246
51.848286	127.540199	-174.014633	0	0	-0.69670669	0.71735611
52.390759	127.199615	-173.824783	0	0	-0.69670669	0.71735611
94.887703	77.153473	-153.260071	0	0	-0.82533563	0.56464246
52.932018	126.855400	-173.634232	0	0	-0.69670669	0.71735611
94.599464	77.827904	-153.480743	0	0	-0.82533563	0.56464246
53.472054	126.507545	-173.442978	0	0	-0.69670669	0.71735611
94.307114	78.499550	-153.701492	0	0	-0.76484218	0.64421769
54.010834	126.156052	-173.251022	0	0	-0.69670669	0.71735611
94.010696	79.168381	-153.922318	0	0	-0.76484218	0.64421769
54.548321	125.800911	-173.058395	0	0	-0.69670669	0.71735611
93.710236	79.834373	-154.143234	0	0	-0.76484218	0.64421769
55.084507	125.442123	-172.865082	0	0	-0.69670669	0.71735611
93.405746	80.497505	-154.364212	0	0	-0.76484218	0.64421769
55.619354	125.079681	-172.671097	0	0	-0.69670669	0.71735611
93.097282	81.157753	-154.585236	0	0	-0.76484218	0.64421769
56.152836	124.713585	-172.476440	0	0	-0.69670669	0.71735611
56.684933	124.343826	-172.281128	0	0	-0.69670669	0.71735611
92.784866	81.815094	-154.806320	0	0	-0.76484218	0.64421769
57.215611	123.970413	-172.085175	0	0	-0.69670669	0.71735611
92.468513	82.469513	-155.027466	0	0	-0.76484218	0.64421769
57.744846	123.593330	-171.888580	0	0	-0.69670669	0.71735611
92.148277	83.120972	-155.248627	0	0	-0.76484218	0.64421769
58.272610	123.212578	-171.691345	0	0	-0.69670669	0.71735611
91.824173	83.769463	-155.469818	0	0	-0.76484218	0.64421769
58.798878	122.828171	-171.493484	0	0	-0.69670669	0.71735611
91.496231	84.414963	-155.691025	0	0	-0.76484218	0.64421769
59.323616	122.440086	-171.295013	0	0	-0.69670669	0.71735611
91.164497	85.057442	-155.912216	0	0	-0.76484218	0.64421769
59.846802	122.048332	-171.095917	0	0	-0.69670669	0.71735611
90.828979	85.696892	-156.133423	0	0	-0.76484218	0.64421769
60.368408	121.652901	-170.896240	0	0	-0.69670669	0.71735611
90.489731	86.333282	-156.354614	0	0	-0.76484218	0.64421769
60.888405	121.253799	-170.695953	0	0	-0.69670669	0.71735611
90.146767	86.966599	-156.575790	0	0	-0.76484218	0.64421769
61.406754	120.851021	-170.495102	0	0	-0.69670669	0.71735611
61.923450	120.444572	-170.293640	0	0	-0.69670669	0.71735611
89.800125	87.596817	-156.796936	0	0	-0.76484218	0.64421769
62.438442	120.034439	-170.091629	0	0	-0.69670669	0.71735611
89.449837	88.223923	-157.018036	0	0	-0.76484218	0.64421769
62.951717	119.620636	-169.889053	0	0	-0.69670669	0.71735611
89.095932	88.847900	-157.239105	0	0	-0.76484218	0.64421769
63.463238	119.203156	-169.685928	0	0	-0.69670669	0.71735611
88.738434	89.468719	-157.460098	0	0	-0.76484218	0.64421769
63.972977	118.781998	-169.482239	0	0	-0.69670669	0.71735611
88.377396	90.086372	-157.681046	0	0	-0.76484218	0.64421769
64.480904	118.357170	-169.278030	0	0	-0.69670669	0.71735611
88.012833	90.700836	-157.901917	0	0	-0.76484218	0.64421769
64.987000	117.928665	-169.073288	0	0	-0.69670669	0.71735611
87.644775	91.312088	-158.122696	0	0	-0.76484218	0.64421769
65.491219	117.496483	-168.868011	0	0	-0.69670669	0.71735611
87.273254	91.920120	-158.343399	0	0	-0.76484218	0.64421769
65.993546	117.060631	-168.662231	0	0	-0.69670669	0.71735611
86.898315	92.524918	-158.563995	0	0	-0.76484218	0.64421769
66.493942	116.621109	-168.455948	0	0	-0.69670669	0.71735611
86.519966	93.126450	-158.784485	0	0	-0.76484218	0.64421769
66.992386	116.177917	-168.249161	0	0	-0.69670669	0.71735611
86.138260	93.724716	-159.004883	0	0	-0.76484218	0.64421769
67.488838	115.731064	-168.041885	0	0	-0.69670669	0.71735611
85.753227	94.319695	-159.225113	0	0	-0.76484218	0.64421769
67.983269	115.280548	-167.834122	0	0	-0.69670669	0.71735611
-287.243896	-106.909218	-273.243073	0	0	0	1
85.364883	94.911369	-159.445236	0	0	-0.76484218	0.64421769
68.475662	114.826370	-167.625900	0	0	-0.69670669	0.71735611
84.973274	95.499718	-159.665222	0	0	-0.76484218	0.64421769
68.965973	114.368530	-167.417206	0	0	-0.69670669	0.71735611
84.578438	96.084732	-159.885040	0	0	-0.76484218	0.64421769
69.454178	113.907043	-167.208054	0	0	-0.76484218	0.64421769
69.940247	113.441895	-166.998459	0	0	-0.76484218	0.64421769
84.180374	96.666405	-160.104721	0	0	-0.76484218	0.64421769
70.424141	112.973106	-166.788422	0	0	-0.76484218	0.64421769
83.779160	97.244705	-160.324219	0	0	-0.76484218	0.64421769
70.905846	112.500671	-166.577942	0	0	-0.76484218	0.64421769
83.374786	97.819633	-160.543533	0	0	-0.76484218	0.64421769
71.385323	112.024597	-166.367050	0	0	-0.76484218	0.64421769
82.967316	98.391174	-160.762680	0	0	-0.76484218	0.64421769
71.862534	111.544891	-166.155731	0	0	-0.76484218	0.64421769
82.556755	98.959312	-160.981613	0	0	-0.76484218	0.64421769
72.337456	111.061554	-165.944031	0	0	-0.76484218	0.64421769
82.143150	99.524025	-161.200363	0	0	-0.76484218	0.64421769
72.810059	110.574600	-165.731903	0	0	-0.76484218	0.64421769
81.726540	100.085320	-161.418900	0	0	-0.76484218	0.64421769
73.280312	110.084023	-165.519394	0	0	-0.76484218	0.64421769
81.306938	100.643166	-161.637192	0	0	-0.76484218	0.64421769
73.748177	109.589836	-165.306503	0	0	-0.76484218	0.64421769
80.884392	101.197563	-161.855286	0	0	-0.76484218	0.64421769
74.213631	109.092041	-165.093246	0	0	-0.76484218	0.64421769
80.458923	101.748497	-162.073120	0	0	-0.76484218	0.64421769
74.676636	108.590645	-164.879623	0	0	-0.76484218	0.64421769
80.030563	102.295944	-162.290726	0	0	-0.76484218	0.64421769
75.137161	108.085655	-164.665649	0	0	-0.76484218	0.64421769
79.599350	102.839920	-162.508072	0	0	-0.76484218	0.64421769
75.595184	107.577087	-164.451309	0	0	-0.76484218	0.64421769
79.165321	103.380386	-162.725143	0	0	-0.76484218	0.64421769
76.050674	107.064934	-164.236633	0	0	-0.76484218	0.64421769
78.728485	103.917351	-162.941956	0	0	-0.76484218	0.64421769
76.503586	106.549217	-164.021637	0	0	-0.76484218	0.64421769
78.288902	104.450790	-163.158493	0	0	-0.76484218	0.64421769
76.953896	106.029938	-163.806305	0	0	-0.76484218	0.64421769
77.846588	104.980713	-163.374725	0	0	-0.76484218	0.64421769
77.401581	105.507095	-163.590668	0	0	-0.76484218	0.64421769
-294.136444	-111.019463	-278.718231	0	0	0	1
150.784698	3.559935	-90.052834	0	0	0	1
-301.249023	-115.303490	-284.385651	0	0	0	1
-308.588593	-119.768959	-290.252319	0	0	0	1
-316.163452	-124.424240	-296.326202	0	0	0	1
-323.980530	-129.277512	-302.614532	0	0	0	1
-332.048065	-134.337646	-309.125397	0	0	0	1
196.485382	10.416731	-93.310265	0	0	0.99913515	0.041580682
-340.373840	-139.613708	-315.866821	0	0	0	1
-348.966003	-145.115189	-322.847229	0	0	0	1
-357.830994	-150.851196	-330.073853	0	0	0	1
-366.978088	-156.832275	-337.556122	0	0	0	1
-376.413361	-163.067993	-345.301300	0	0	0	1
-386.144470	-169.568878	-353.317963	0	0	0	1
282.827362	23.371223	-99.464500	0	0	0.99913515	0.041580682
-396.177979	-176.345322	-361.613922	0	0	0	1
-406.520538	-183.408005	-370.197266	0	0	0	1
-268.926788	-334.007294	-356.452118	0	0	0	1
-270.225922	-335.528473	-357.790680	0	0	0	1
-271.757172	-337.321411	-359.368408	0	0	0.41614682	0.90929743
-273.525757	-339.392242	-361.190643	0	0	0.41614682	0.90929743
-417.176544	-190.767029	-379.074524	0	0	0	1
-275.537292	-341.747589	-363.263214	0	0	0	1
-277.799164	-344.396057	-365.593750	0	0	0.41614682	0.90929743
-280.320221	-347.347992	-368.191315	0	0	0.41614682	0.90929743
-283.110687	-350.615417	-371.066498	0	0	0.41614682	0.90929743
-428.152832	-198.433762	-388.254150	0	0	0	1
-286.182678	-354.212433	-374.231720	0	0	0.41614682	0.90929743
-289.549652	-358.154877	-377.700867	0	0	0	1
-439.450928	-206.417572	-397.740814	0	0	0	1
-293.227386	-362.461182	-381.490234	0	0	0.41614682	0.90929743
-297.234070	-367.152679	-385.618530	0	0	0	1
-301.590302	-372.253418	-390.106934	0	0	0	1
-451.076019	-214.729614	-407.541962	0	0	0	1
-306.319305	-377.790680	-394.979492	0	0	0	1
-311.447327	-383.795166	-400.263153	0	0	0.41614682	0.90929743
-463.027832	-223.378937	-417.661133	0	0	0	1
-317.004547	-390.302185	-405.989014	0	0	0.41614682	0.90929743
-314.280945	-391.203888	-407.597137	0	0	0	1
-475.306366	-232.374771	-428.102142	0	0	0	1
-323.025696	-397.352448	-412.192902	0	0	0	1
-329.549194	-404.990906	-418.914429	0	0	0.41614682	0.90929743
-487.911224	-241.726349	-438.868530	0	0	0	1
-336.620148	-413.270386	-426.199982	0	0	0.41614682	0.90929743
-344.289154	-422.250122	-434.101715	0	0	0	1
-352.615112	-431.999084	-442.680359	0	0	0	1
-361.665985	-442.596893	-452.005951	0	0	0.41614682	0.90929743
-371.520386	-454.135559	-462.159424	0	0	0	1
-382.268646	-466.720856	-473.233917	0	0	0	1
-394.017456	-480.477692	-485.339294	0	0	0.50484609	0.86320938
-406.892792	-495.553589	-498.605377	0	0	0	1
-85.112600	-102.330000	13.271000	0.000000	0.000000	0.737395	0.675462
