-104.696976	-264.355530	-193.041840	0	0	0	1
-50.755013	-183.493591	-124.979187	0	0	0	1
-24.688866	-144.418884	-92.089142	0	0	0	1
-9.325642	-121.388405	-72.703697	0	0	0	1
-8.066683	-118.493759	-70.535057	0	0	0	1
-9.144680	-118.860168	-71.178612	0	0	0	1
-10.228069	-119.214172	-71.820374	0	0	0	1
-11.316711	-119.555702	-72.460342	0	0	0	1
-12.410432	-119.884689	-73.098457	0	0	0	1
-13.509102	-120.201065	-73.734718	0	0	0	1
-14.612549	-120.504761	-74.369087	0	0	0	1
-15.720631	-120.795715	-75.001541	0	0	0	1
-16.833195	-121.073853	-75.632057	0	0	0	1
-17.950094	-121.339134	-76.260612	0	0	0	1
-19.071165	-121.591484	-76.887184	0	0	0	1
-20.196249	-121.830849	-77.511742	0	0	0	1
-21.325195	-122.057167	-78.134262	0	0	0	1
-22.457848	-122.270401	-78.754715	0	0	0	1
-23.876160	-122.796631	-78.757210	0	0	0.41614682	0.90929743
-25.302135	-123.306320	-78.757210	0	0	0.50484609	0.86320938
-26.734388	-123.798042	-78.757210	0	0	0.50484609	0.86320938
-28.172728	-124.271736	-78.757210	0	0	0.50484609	0.86320938
-29.616884	-124.727318	-78.757210	0	0	0.50484609	0.86320938
-31.066671	-125.164711	-78.757210	0	0	0.50484609	0.86320938
-32.521832	-125.583855	-78.757210	0	0	0.50484609	0.86320938
-33.982143	-125.984680	-78.757210	0	0	0.50484609	0.86320938
-35.447376	-126.367119	-78.757210	0	0	0.50484609	0.86320938
-36.917294	-126.731117	-78.757210	0	0	0.58850112	0.8084964
-38.391682	-127.076614	-78.757210	0	0	0.58850112	0.8084964
-39.870281	-127.403564	-78.757210	0	0	0.58850112	0.8084964
-41.352879	-127.711899	-78.757210	0	0	0.58850112	0.8084964
-42.839233	-128.001587	-78.757210	0	0	0.58850112	0.8084964
-44.329117	-128.272568	-78.757210	0	0	0.58850112	0.8084964
-45.822277	-128.524811	-78.757210	0	0	0.58850112	0.8084964
-47.318493	-128.758270	-78.757210	0	0	0.58850112	0.8084964
-48.817532	-128.972900	-78.757210	0	0	0.58850112	0.8084964
-50.319138	-129.168686	-78.757210	0	0	0.58850112	0.8084964
-51.823101	-129.345596	-78.757210	0	0	0.58850112	0.8084964
-53.329151	-129.503571	-78.757210	0	0	0.58850112	0.8084964
-54.837090	-129.642624	-78.757210	0	0	0.58850112	0.8084964
-56.346630	-129.762711	-78.757210	0	0	0.58850112	0.8084964
-57.857578	-129.863831	-78.757210	0	0	0.58850112	0.8084964
-59.369667	-129.945938	-78.757210	0	0	0.58850112	0.8084964
-60.882671	-130.009048	-78.757210	0	0	0.58850112	0.8084964
-62.396351	-130.053131	-78.757210	0	0	0.58850112	0.8084964
-63.910461	-130.078201	-78.757210	0	0	0.58850112	0.8084964
-65.424774	-130.084244	-78.757210	0	0	0.58850112	0.8084964
-66.939041	-130.071243	-78.757210	0	0	0.58850112	0.8084964
-68.453026	-130.039230	-78.757210	0	0	0.58850112	0.8084964
-69.966484	-129.988190	-78.757210	0	0	0.58850112	0.8084964
-71.479172	-129.918137	-78.757210	0	0	0.58850112	0.8084964
-72.990883	-129.829071	-78.757210	0	0	0.58850112	0.8084964
-74.501343	-129.721024	-78.757210	0	0	0.58850112	0.8084964
-76.010338	-129.594009	-78.757210	0	0	0.58850112	0.8084964
-77.517601	-129.448044	-78.757210	0	0	0.58850112	0.8084964
-79.022911	-129.283142	-78.757210	0	0	0.58850112	0.8084964
-80.526039	-129.099335	-78.757210	0	0	0.58850112	0.8084964
-82.026749	-128.896667	-78.757210	0	0	0.58850112	0.8084964
-83.524765	-128.675140	-78.757210	0	0	0.58850112	0.8084964
-85.019897	-128.434814	-78.757210	0	0	0.58850112	0.8084964
-86.511894	-128.175720	-78.757210	0	0	0.58850112	0.8084964
-88.000511	-127.897896	-78.757210	0	0	0.58850112	0.8084964
-89.485527	-127.601395	-78.757210	0	0	0.58850112	0.8084964
-90.966682	-127.286247	-78.757210	0	0	0.58850112	0.8084964
-92.443771	-126.952522	-78.757210	0	0	0.58850112	0.8084964
-93.916557	-126.600250	-78.757210	0	0	0.58850112	0.8084964
-95.384789	-126.229507	-78.757210	0	0	0.58850112	0.8084964
-96.848251	-125.840347	-78.757210	0	0	0.58850112	0.8084964
-98.306709	-125.432816	-78.757210	0	0	0.58850112	0.8084964
-99.759926	-125.006996	-78.757210	0	0	0.58850112	0.8084964
-101.207687	-124.562950	-78.757210	0	0	0.58850112	0.8084964
-102.649742	-124.100746	-78.757210	0	0	0.58850112	0.8084964
-104.085884	-123.620453	-78.757210	0	0	0.58850112	0.8084964
-105.515869	-123.122154	-78.757210	0	0	0.58850112	0.8084964
-106.939484	-122.605927	-78.757210	0	0	0.58850112	0.8084964
-108.356499	-122.071854	-78.757210	0	0	0.58850112	0.8084964
-109.766693	-121.520012	-78.757210	0	0	0.58850112	0.8084964
-111.169838	-120.950493	-78.757210	0	0	0.58850112	0.8084964
-112.565712	-120.363388	-78.757210	0	0	0.58850112	0.8084964
-113.954109	-119.758789	-78.757210	0	0	0.58850112	0.8084964
-115.334793	-119.136787	-78.757210	0	0	0.58850112	0.8084964
-116.707550	-118.497498	-78.757210	0	0	0.58850112	0.8084964
-118.072166	-117.840996	-78.757210	0	0	0.58850112	0.8084964
-119.428429	-117.167404	-78.757210	0	0	0.58850112	0.8084964
-120.776115	-116.476822	-78.757210	0	0	0.58850112	0.8084964
-122.115021	-115.769356	-78.757210	0	0	0.58850112	0.8084964
-123.444923	-115.045128	-78.757210	0	0	0.58850112	0.8084964
-124.765625	-114.304237	-78.757210	0	0	0.58850112	0.8084964
-126.076920	-113.546806	-78.757210	0	0	0.58850112	0.8084964
-127.378586	-112.772964	-78.757210	0	0	0.50484609	0.86320938
-128.670425	-111.982834	-78.757210	0	0	0.50484609	0.86320938
-129.952225	-111.176521	-78.757210	0	0	0.50484609	0.86320938
-131.223801	-110.354172	-78.757210	0	0	0.50484609	0.86320938
-132.484955	-109.515900	-78.757210	0	0	0.50484609	0.86320938
-133.735458	-108.661858	-78.757210	0	0	0.50484609	0.86320938
-134.975128	-107.792160	-78.757210	0	0	0.50484609	0.86320938
-136.203781	-106.906952	-78.757210	0	0	0.50484609	0.86320938
-137.421219	-106.006386	-78.757210	0	0	0.50484609	0.86320938
-138.627243	-105.090576	-78.757210	0	0	0.50484609	0.86320938
-139.821640	-104.159698	-78.757210	0	0	0.50484609	0.86320938
-141.004272	-103.213875	-78.757210	0	0	0.50484609	0.86320938
-142.174911	-102.253273	-78.757210	0	0	0.50484609	0.86320938
-143.333389	-101.278038	-78.757210	0	0	0.50484609	0.86320938
-144.479523	-100.288315	-78.757210	0	0	0.50484609	0.86320938
-145.613144	-99.284264	-78.757210	0	0	0.50484609	0.86320938
-146.734039	-98.266068	-78.757210	0	0	0.50484609	0.86320938
-147.842056	-97.233849	-78.757210	0	0	0.50484609	0.86320938
-148.937012	-96.187790	-78.757210	0	0	0.50484609	0.86320938
-150.018738	-95.128059	-78.757210	0	0	0.50484609	0.86320938
-151.087067	-94.054810	-78.757210	0	0	0.50484609	0.86320938
-152.141830	-92.968231	-78.757210	0	0	0.50484609	0.86320938
-153.182846	-91.868484	-78.757210	0	0	0.50484609	0.86320938
-154.209961	-90.755737	-78.757210	0	0	0.50484609	0.86320938
-155.223007	-89.630165	-78.757210	0	0	0.50484609	0.86320938
-156.221832	-88.491966	-78.757210	0	0	0.50484609	0.86320938
-157.206284	-87.341301	-78.757210	0	0	0.50484609	0.86320938
-158.176193	-86.178352	-78.757210	0	0	0.50484609	0.86320938
-159.131409	-85.003311	-78.757210	0	0	0.50484609	0.86320938
-160.071793	-83.816360	-78.757210	0	0	0.50484609	0.86320938
-160.997177	-82.617676	-78.757210	0	0	0.50484609	0.86320938
-161.907425	-81.407471	-78.757210	0	0	0.50484609	0.86320938
-162.802399	-80.185913	-78.757210	0	0	0.50484609	0.86320938
-163.681961	-78.953209	-78.757210	0	0	0.50484609	0.86320938
-164.545944	-77.709557	-78.757210	0	0	0.41614682	0.90929743
-165.394241	-76.455139	-78.757210	0	0	0.41614682	0.90929743
-166.226715	-75.190170	-78.757210	0	0	0.41614682	0.90929743
-167.043213	-73.914825	-78.757210	0	0	0.41614682	0.90929743
-167.843628	-72.629326	-78.757210	0	0	0.41614682	0.90929743
-168.627838	-71.333870	-78.757210	0	0	0.41614682	0.90929743
-169.395691	-70.028664	-78.757210	0	0	0.41614682	0.90929743
-170.147079	-68.713913	-78.757210	0	0	0.41614682	0.90929743
-170.881897	-67.389816	-78.757210	0	0	0.41614682	0.90929743
-171.600021	-66.056602	-78.757210	0	0	0.41614682	0.90929743
-172.301331	-64.714462	-78.757210	0	0	0.41614682	0.90929743
-172.985718	-63.363621	-78.757210	0	0	0.41614682	0.90929743
-173.653076	-62.004280	-78.757210	0	0	0.41614682	0.90929743
-174.303299	-60.636665	-78.757210	0	0	0.41614682	0.90929743
-174.936295	-59.260986	-78.757210	0	0	0.41614682	0.90929743
-175.551941	-57.877457	-78.757210	0	0	0.41614682	0.90929743
-176.150162	-56.486301	-78.757210	0	0	0.41614682	0.90929743
-176.730850	-55.087746	-78.757210	0	0	0.41614682	0.90929743
-177.293915	-53.681999	-78.757210	0	0	0.41614682	0.90929743
-177.839279	-52.269287	-78.757210	0	0	0.41614682	0.90929743
-178.366837	-50.849834	-78.757210	0	0	0.41614682	0.90929743
-178.876526	-49.423866	-78.757210	0	0	0.41614682	0.90929743
-179.368256	-47.991604	-78.757210	0	0	0.41614682	0.90929743
-179.841934	-46.553272	-78.757210	0	0	0.41614682	0.90929743
-180.297516	-45.109112	-78.757210	0	0	0.41614682	0.90929743
-180.734909	-43.659332	-78.757210	0	0	0.41614682	0.90929743
-181.154053	-42.204170	-78.757210	0	0	0.41614682	0.90929743
-181.554886	-40.743858	-78.757210	0	0	0.41614682	0.90929743
-181.937317	-39.278625	-78.757210	0	0	0.41614682	0.90929743
-182.301315	-37.808704	-78.757210	0	0	0.41614682	0.90929743
-182.646820	-36.334320	-78.757210	0	0	0.41614682	0.90929743
-182.973770	-34.855717	-78.757210	0	0	0.41614682	0.90929743
-183.282104	-33.373123	-78.757210	0	0	0.41614682	0.90929743
-183.571793	-31.886766	-78.757210	0	0	0.32328956	0.94630009
-183.842773	-30.396889	-78.757210	0	0	0.32328956	0.94630009
-184.095016	-28.903717	-78.757210	0	0	0.32328956	0.94630009
-184.328476	-27.407501	-78.757210	0	0	0.32328956	0.94630009
-184.543106	-25.908468	-78.757210	0	0	0.32328956	0.94630009
-184.738892	-24.406858	-78.757210	0	0	0.32328956	0.94630009
-184.915787	-22.902905	-78.757210	0	0	0.32328956	0.94630009
-185.073776	-21.396847	-78.757210	0	0	0.32328956	0.94630009
-185.212830	-19.888924	-78.757210	0	0	0.32328956	0.94630009
-185.332916	-18.379372	-78.757210	0	0	0.32328956	0.94630009
-185.434021	-16.868427	-78.757210	0	0	0.32328956	0.94630009
-185.516144	-15.356332	-78.757210	0	0	0.32328956	0.94630009
-185.579254	-13.843329	-78.757210	0	0	0.32328956	0.94630009
-185.623337	-12.329651	-78.757210	0	0	0.32328956	0.94630009
-185.648407	-10.815536	-78.757210	0	0	0.32328956	0.94630009
-185.654449	-9.301225	-78.757210	0	0	0.32328956	0.94630009
-185.641449	-7.786960	-78.757210	0	0	0.32328956	0.94630009
-185.609436	-6.272976	-78.757210	0	0	0.32328956	0.94630009
-185.558395	-4.759516	-78.757210	0	0	0.32328956	0.94630009
-185.488342	-3.246819	-78.757210	0	0	0.32328956	0.94630009
-185.399277	-1.735116	-78.757210	0	0	0.32328956	0.94630009
-185.291229	-0.224654	-78.757210	0	0	0.32328956	0.94630009
-185.164215	1.284332	-78.757210	0	0	0.32328956	0.94630009
-185.018250	2.791603	-78.757210	0	0	0.32328956	0.94630009
-184.853348	4.296916	-78.757210	0	0	0.32328956	0.94630009
-184.669540	5.800043	-78.757210	0	0	0.32328956	0.94630009
-184.466858	7.300743	-78.757210	0	0	0.32328956	0.94630009
-184.245346	8.798769	-78.757210	0	0	0.32328956	0.94630009
-184.005020	10.293900	-78.757210	0	0	0.32328956	0.94630009
-183.745926	11.785891	-78.757210	0	0	0.32328956	0.94630009
-183.468109	13.274511	-78.757210	0	0	0.32328956	0.94630009
-183.171600	14.759521	-78.757210	0	0	0.32328956	0.94630009
-183.130264	14.959105	-78.757210	0	0	0.22720209	0.97384763
-183.244110	15.350956	-78.174454	0	0	0.22720209	0.97384763
-183.360580	15.770874	-77.552124	0	0	0.22720209	0.97384763
-183.472168	16.193630	-76.927757	0	0	0.22720209	0.97384763
-183.578812	16.619165	-76.301384	0	0	0.22720209	0.97384763
-183.680466	17.047421	-75.673012	0	0	0.22720209	0.97384763
-183.777100	17.478336	-75.042679	0	0	0.22720209	0.97384763
-183.868652	17.911846	-74.410408	0	0	0.22720209	0.97384763
-183.955109	18.347895	-73.776215	0	0	0.22720209	0.97384763
-184.036407	18.786415	-73.140137	0	0	0.22720209	0.97384763
-184.112534	19.227346	-72.502197	0	0	0.22720209	0.97384763
-184.183411	19.670626	-71.862411	0	0	0.22720209	0.97384763
-184.249039	20.116184	-71.220818	0	0	0.22720209	0.97384763
-184.309357	20.563967	-70.577431	0	0	0.22720209	0.97384763
-184.364334	21.013901	-69.932289	0	0	0.22720209	0.97384763
-184.413925	21.465923	-69.285400	0	0	0.22720209	0.97384763
-184.458115	21.919971	-68.636803	0	0	0.22720209	0.97384763
-184.496872	22.375973	-67.986519	0	0	0.22720209	0.97384763
-184.530136	22.833864	-67.334572	0	0	0.22720209	0.97384763
-184.557892	23.293579	-66.680992	0	0	0.22720209	0.97384763
-184.580109	23.755045	-66.025803	0	0	0.22720209	0.97384763
-184.596756	24.218197	-65.369026	0	0	0.22720209	0.97384763
-184.607803	24.682966	-64.710693	0	0	0.22720209	0.97384763
-184.613220	25.149282	-64.050827	0	0	0.22720209	0.97384763
-184.612976	25.617079	-63.389462	0	0	0.22720209	0.97384763
-184.607040	26.086281	-62.726612	0	0	0.22720209	0.97384763
-184.595398	26.556824	-62.062305	0	0	0.22720209	0.97384763
-184.578018	27.028631	-61.396580	0	0	0.22720209	0.97384763
-184.554871	27.501637	-60.729446	0	0	0.22720209	0.97384763
-184.525940	27.975765	-60.060940	0	0	0.22720209	0.97384763
-184.491196	28.450945	-59.391087	0	0	0.22720209	0.97384763
-184.450623	28.927105	-58.719910	0	0	0.22720209	0.97384763
-184.404205	29.404177	-58.047440	0	0	0.22720209	0.97384763
-184.351913	29.882078	-57.373703	0	0	0.22720209	0.97384763
-184.293732	30.360744	-56.698719	0	0	0.22720209	0.97384763
-184.229630	30.840097	-56.022522	0	0	0.22720209	0.97384763
-184.159607	31.320066	-55.345135	0	0	0.22720209	0.97384763
-184.083649	31.800577	-54.666588	0	0	0.22720209	0.97384763
-184.001724	32.281551	-53.986904	0	0	0.22720209	0.97384763
-183.913818	32.762920	-53.306114	0	0	0.22720209	0.97384763
-183.819931	33.244606	-52.624237	0	0	0.22720209	0.97384763
-183.720047	33.726536	-51.941311	0	0	0.22720209	0.97384763
-183.614166	34.208630	-51.257359	0	0	0.22720209	0.97384763
-183.502243	34.690815	-50.572399	0	0	0.22720209	0.97384763
-183.384293	35.173019	-49.886471	0	0	0.22720209	0.97384763
-183.260300	35.655163	-49.199596	0	0	0.22720209	0.97384763
-183.130264	36.137169	-48.511799	0	0	0.22720209	0.97384763
-182.994171	36.618969	-47.823109	0	0	0.22720209	0.97384763
-182.852020	37.100475	-47.133556	0	0	0.22720209	0.97384763
-182.703796	37.581623	-46.443165	0	0	0.22720209	0.97384763
-182.549500	38.062328	-45.751965	0	0	0.22720209	0.97384763
-182.389130	38.542519	-45.059978	0	0	0.22720209	0.97384763
-182.222687	39.022114	-44.367237	0	0	0.22720209	0.97384763
-182.050156	39.501038	-43.673771	0	0	0.22720209	0.97384763
-181.871552	39.979218	-42.979595	0	0	0.22720209	0.97384763
-181.686874	40.456573	-42.284752	0	0	0.22720209	0.97384763
-181.496124	40.933029	-41.589260	0	0	0.22720209	0.97384763
-181.299301	41.408504	-40.893150	0	0	0.22720209	0.97384763
-181.096405	41.882927	-40.196449	0	0	0.22720209	0.97384763
-180.887436	42.356220	-39.499184	0	0	0.22720209	0.97384763
-180.672424	42.828304	-38.801380	0	0	0.22720209	0.97384763
-180.451340	43.299107	-38.103069	0	0	0.22720209	0.97384763
-180.224228	43.768543	-37.404278	0	0	0.22720209	0.97384763
-179.991074	44.236542	-36.705032	0	0	0.22720209	0.97384763
-179.751892	44.703026	-36.005360	0	0	0.22720209	0.97384763
-179.506683	45.167919	-35.305290	0	0	0.22720209	0.97384763
-179.255478	45.631142	-34.604843	0	0	0.22720209	0.97384763
-178.998291	46.092621	-33.904064	0	0	0.22720209	0.97384763
-178.735107	46.552277	-33.202961	0	0	0.22720209	0.97384763
-178.465958	47.010036	-32.501575	0	0	0.22720209	0.97384763
-178.190872	47.465820	-31.799923	0	0	0.22720209	0.97384763
-177.909836	47.919556	-31.098040	0	0	0.22720209	0.97384763
-177.622894	48.371166	-30.395956	0	0	0.22720209	0.97384763
-177.330048	48.820576	-29.693691	0	0	0.22720209	0.97384763
-177.031326	49.267704	-28.991282	0	0	0.22720209	0.97384763
-176.726746	49.712482	-28.288750	0	0	0.22720209	0.97384763
-176.416321	50.154835	-27.586121	0	0	0.22720209	0.97384763
-176.100082	50.594681	-26.883427	0	0	0.22720209	0.97384763
-175.778046	51.031952	-26.180695	0	0	0.22720209	0.97384763
-175.450241	51.466572	-25.477947	0	0	0.22720209	0.97384763
-175.116699	51.898464	-24.775227	0	0	0.22720209	0.97384763
-174.777420	52.327557	-24.072542	0	0	0.22720209	0.97384763
-174.432465	52.753780	-23.369930	0	0	0.22720209	0.97384763
-174.081833	53.177052	-22.667423	0	0	0.22720209	0.97384763
-173.725571	53.597305	-21.965042	0	0	0.22720209	0.97384763
-173.363708	54.014469	-21.262821	0	0	0.22720209	0.97384763
-172.996262	54.428463	-20.560776	0	0	0.22720209	0.97384763
-172.623260	54.839222	-19.858950	0	0	0.22720209	0.97384763
-172.244751	55.246670	-19.157356	0	0	0.22720209	0.97384763
-171.860779	55.650738	-18.456032	0	0	0.22720209	0.97384763
-171.471344	56.051353	-17.754999	0	0	0.22720209	0.97384763
-171.076492	56.448448	-17.054293	0	0	0.22720209	0.97384763
-170.676285	56.841946	-16.353933	0	0	0.22720209	0.97384763
-170.270721	57.231785	-15.653954	0	0	0.22720209	0.97384763
-169.859863	57.617893	-14.954379	0	0	0.22720209	0.97384763
-169.443741	58.000198	-14.255229	0	0	0.22720209	0.97384763
-169.022400	58.378635	-13.556547	0	0	0.22720209	0.97384763
-168.595886	58.753132	-12.858350	0	0	0.22720209	0.97384763
-168.164215	59.123623	-12.160670	0	0	0.22720209	0.97384763
-167.727448	59.490044	-11.463531	0	0	0.22720209	0.97384763
-167.285629	59.852322	-10.766966	0	0	0.22720209	0.97384763
-166.838791	60.210392	-10.070992	0	0	0.22720209	0.97384763
-166.386993	60.564198	-9.375651	0	0	0.22720209	0.97384763
-165.930267	60.913658	-8.680955	0	0	0.22720209	0.97384763
-165.468674	61.258724	-7.986943	0	0	0.22720209	0.97384763
-165.002243	61.599316	-7.293643	0	0	0.22720209	0.97384763
-164.531036	61.935383	-6.601074	0	0	0.22720209	0.97384763
-164.055099	62.266857	-5.909264	0	0	0.22720209	0.97384763
-163.574478	62.593678	-5.218250	0	0	0.22720209	0.97384763
-163.089218	62.915775	-4.528045	0	0	0.22720209	0.97384763
-162.523132	63.412376	-3.975108	0	0	0.22720209	0.97384763
-161.617371	64.672478	-4.009977	0	0	0.22720209	0.97384763
-160.695801	65.921188	-4.044765	0	0	0.22720209	0.97384763
-159.758560	67.158310	-4.079467	0	0	0.22720209	0.97384763
-158.805817	68.383659	-4.114078	0	0	0.22720209	0.97384763
-157.837692	69.597023	-4.148596	0	0	0.22720209	0.97384763
-156.854370	70.798225	-4.183024	0	0	0.22720209	0.97384763
-155.855988	71.987061	-4.217356	0	0	0.22720209	0.97384763
-154.842682	73.163353	-4.251595	0	0	0.22720209	0.97384763
-153.814651	74.326912	-4.285735	0	0	0.22720209	0.97384763
-152.772018	75.477547	-4.319776	0	0	0.22720209	0.97384763
-151.714966	76.615089	-4.353734	0	0	0.22720209	0.97384763
-150.643661	77.739349	-4.387581	0	0	0.22720209	0.97384763
-149.558273	78.850143	-4.421322	0	0	0.22720209	0.97384763
-148.458954	79.947296	-4.454954	0	0	0.22720209	0.97384763
-147.345886	81.030647	-4.488504	0	0	0.22720209	0.97384763
-146.219238	82.100006	-4.521931	0	0	0.1288445	0.99166481
-145.079193	83.155220	-4.555251	0	0	0.1288445	0.99166481
-143.925934	84.196114	-4.588470	0	0	0.1288445	0.99166481
-142.759644	85.222519	-4.621576	0	0	0.1288445	0.99166481
-141.580475	86.234283	-4.654572	0	0	0.1288445	0.99166481
-140.388657	87.231224	-4.687454	0	0	0.1288445	0.99166481
-139.184326	88.213211	-4.720229	0	0	0.1288445	0.99166481
-137.967728	89.180061	-4.752876	0	0	0.1288445	0.99166481
-136.738998	90.131645	-4.785426	0	0	0.1288445	0.99166481
-135.498352	91.067802	-4.817844	0	0	0.1288445	0.99166481
-134.246002	91.988373	-4.850144	0	0	0.1288445	0.99166481
-132.982117	92.893227	-4.882329	0	0	0.1288445	0.99166481
-131.706909	93.782211	-4.914392	0	0	0.1288445	0.99166481
-130.420578	94.655182	-4.946335	0	0	0.1288445	0.99166481
-129.123322	95.512001	-4.978141	0	0	0.1288445	0.99166481
-127.815338	96.352547	-5.009841	0	0	0.1288445	0.99166481
-126.496841	97.176666	-5.041400	0	0	0.1288445	0.99166481
-125.168030	97.984238	-5.072835	0	0	0.1288445	0.99166481
-123.829124	98.775131	-5.104148	0	0	0.1288445	0.99166481
-122.480316	99.549232	-5.135337	0	0	0.1288445	0.99166481
-121.121834	100.306389	-5.166383	0	0	0.1288445	0.99166481
-119.753883	101.046501	-5.197293	0	0	0.1288445	0.99166481
-118.376678	101.769447	-5.228065	0	0	0.1288445	0.99166481
-116.990433	102.475121	-5.258719	0	0	0.1288445	0.99166481
-115.595367	103.163391	-5.289229	0	0	0.1288445	0.99166481
-114.191704	103.834167	-5.319608	0	0	0.1288445	0.99166481
-112.779655	104.487320	-5.349842	0	0	0.1288445	0.99166481
-111.359451	105.122765	-5.379938	0	0	0.1288445	0.99166481
-109.931313	105.740387	-5.409888	0	0	0.1288445	0.99166481
-108.495461	106.340096	-5.439702	0	0	0.1288445	0.99166481
-107.052116	106.921791	-5.469371	0	0	0.029199523	0.9995736
-105.601501	107.485390	-5.498903	0	0	0.029199523	0.9995736
-104.143875	108.030785	-5.528278	0	0	0.029199523	0.9995736
-102.679420	108.557907	-5.557516	0	0	0.029199523	0.9995736
-101.208405	109.066658	-5.586602	0	0	0.029199523	0.9995736
-99.731049	109.556953	-5.615530	0	0	0.029199523	0.9995736
-98.247566	110.028732	-5.644323	0	0	0.029199523	0.9995736
-96.758202	110.481903	-5.672962	0	0	0.029199523	0.9995736
-95.263199	110.916397	-5.701442	0	0	0.029199523	0.9995736
-93.762802	111.332146	-5.729770	0	0	0.029199523	0.9995736
-92.257202	111.729088	-5.757944	0	0	0.029199523	0.9995736
-90.746674	112.107147	-5.785960	0	0	0.029199523	0.9995736
-89.231445	112.466270	-5.813825	0	0	0.029199523	0.9995736
-87.711746	112.806396	-5.841528	0	0	0.029199523	0.9995736
-86.187836	113.127472	-5.869069	0	0	0.029199523	0.9995736
-84.659920	113.429451	-5.896459	0	0	0.029199523	0.9995736
-83.128258	113.712273	-5.923685	0	0	0.029199523	0.9995736
-81.593109	113.975899	-5.950743	0	0	0.029199523	0.9995736
-80.054680	114.220284	-5.977643	0	0	0.029199523	0.9995736
-78.513229	114.445389	-6.004376	0	0	0.029199523	0.9995736
-76.969002	114.651169	-6.030942	0	0	0.029199523	0.9995736
-75.422226	114.837608	-6.057346	0	0	0.029199523	0.9995736
-73.873169	115.004654	-6.083579	0	0	0.029199523	0.9995736
-72.322052	115.152298	-6.109642	0	0	0.029199523	0.9995736
-70.769112	115.280502	-6.135541	0	0	0.029199523	0.9995736
-69.214615	115.389259	-6.161274	0	0	0.029199523	0.9995736
-67.658806	115.478531	-6.186824	0	0	0.029199523	0.9995736
-66.101921	115.548309	-6.212200	0	0	0.029199523	0.9995736
-64.544189	115.598595	-6.237411	0	0	0.029199523	0.9995736
-62.985886	115.629364	-6.262443	0	0	0.029199523	0.9995736
-61.427227	115.640610	-6.287305	0	0	-0.070737201	0.99749499
-59.868477	115.632339	-6.311985	0	0	-0.070737201	0.99749499
-58.309879	115.604538	-6.336488	0	0	-0.070737201	0.99749499
-56.751671	115.557228	-6.360809	0	0	-0.070737201	0.99749499
-55.194103	115.490395	-6.384953	0	0	-0.070737201	0.99749499
-53.637409	115.404060	-6.408915	0	0	-0.070737201	0.99749499
-52.081841	115.298241	-6.432708	0	0	-0.070737201	0.99749499
-50.527645	115.172935	-6.456306	0	0	-0.070737201	0.99749499
-48.975063	115.028175	-6.479727	0	0	-0.070737201	0.99749499
-47.424351	114.863968	-6.502955	0	0	-0.070737201	0.99749499
-45.875740	114.680359	-6.525995	0	0	-0.070737201	0.99749499
-44.329472	114.477356	-6.548859	0	0	-0.070737201	0.99749499
-42.785782	114.255005	-6.571540	0	0	-0.070737201	0.99749499
-41.244942	114.013329	-6.594029	0	0	-0.070737201	0.99749499
-39.707169	113.752365	-6.616326	0	0	-0.070737201	0.99749499
-38.172710	113.472160	-6.638432	0	0	-0.070737201	0.99749499
-36.641808	113.172745	-6.660358	0	0	-0.070737201	0.99749499
-35.114716	112.854179	-6.682078	0	0	-0.070737201	0.99749499
-33.591648	112.516502	-6.703615	0	0	-0.070737201	0.99749499
-32.072865	112.159767	-6.724957	0	0	-0.070737201	0.99749499
-30.558586	111.784035	-6.746105	0	0	-0.070737201	0.99749499
-29.049082	111.389351	-6.767056	0	0	-0.070737201	0.99749499
-27.544552	110.975792	-6.787812	0	0	-0.070737201	0.99749499
-26.045252	110.543404	-6.808383	0	0	-0.070737201	0.99749499
-24.551426	110.092270	-6.828741	0	0	-0.070737201	0.99749499
-23.063290	109.622444	-6.848911	0	0	-0.070737201	0.99749499
-21.581099	109.134018	-6.868876	0	0	-0.070737201	0.99749499
-20.105061	108.627045	-6.888644	0	0	-0.070737201	0.99749499
-18.635427	108.101624	-6.908209	0	0	-0.16996714	0.98544973
-17.172421	107.557823	-6.927578	0	0	-0.16996714	0.98544973
-15.716270	106.995728	-6.946743	0	0	-0.16996714	0.98544973
-14.267217	106.415421	-6.965698	0	0	-0.16996714	0.98544973
-12.825477	105.817009	-6.984466	0	0	-0.16996714	0.98544973
-11.391276	105.200577	-7.003010	0	0	-0.16996714	0.98544973
-9.964846	104.566216	-7.021361	0	0	-0.16996714	0.98544973
-8.546411	103.914024	-7.039503	0	0	-0.16996714	0.98544973
-7.136184	103.244102	-7.057452	0	0	-0.16996714	0.98544973
-5.734403	102.556564	-7.075177	0	0	-0.16996714	0.98544973
-4.341280	101.851509	-7.092698	0	0	-0.16996714	0.98544973
-2.957034	101.129044	-7.110011	0	0	-0.16996714	0.98544973
-1.581879	100.389290	-7.127117	0	0	-0.16996714	0.98544973
-0.216036	99.632355	-7.144014	0	0	-0.16996714	0.98544973
1.140271	98.858360	-7.160695	0	0	-0.16996714	0.98544973
2.486852	98.067421	-7.177171	0	0	-0.16996714	0.98544973
3.823468	97.259666	-7.193433	0	0	-0.16996714	0.98544973
3.813267	99.524078	-7.209487	0	0	-0.16996714	0.98544973
-1.113590	113.416054	-7.225319	0	0	-0.16996714	0.98544973
-7.173103	130.498123	-7.240940	0	0	0	1
-14.806376	152.012711	-7.256348	0	0	-0.16996714	0.98544973
-24.717550	179.943130	-7.271545	0	0	-0.16996714	0.98544973
-38.104706	217.663940	-7.286522	0	0	-0.16996714	0.98544973
-57.184395	271.418396	-7.301286	0	0	-0.16996714	0.98544973
-86.567184	354.192810	-7.315834	0	0	-0.16996714	0.98544973
-137.683594	498.182861	-7.330161	0	0	0	1
96.2161	86.9762	-13.0989	0.0	0.0	-0.621608928956	0.783327734376	
