-52.235153	4.656630	-70.296684	0	0	0	1
-52.392651	8.200335	-71.065613	0	0	0	1
-52.190079	3.952796	-70.144661	0	0	0	1
-52.410389	8.913775	-71.221130	0	0	0	1
-52.140556	3.250663	-69.993248	0	0	0	1
-52.423481	9.628708	-71.377205	0	0	0	1
-52.086597	2.550263	-69.842430	0	0	0	1
-52.431889	10.345107	-71.533829	0	0	0	1
-52.028244	1.851625	-69.692238	0	0	0	1
-52.435596	11.062932	-71.691010	0	0	0	1
-51.965519	1.154771	-69.542664	0	0	0	1
-52.434570	11.782157	-71.848724	0	0	0	1
-51.898453	0.459733	-69.393715	0	0	0	1
-52.428787	12.502750	-72.006981	0	0	0	1
-51.827076	-0.233465	-69.245415	0	0	0	1
-52.418224	13.224673	-72.165764	0	0	-0.16996714	0.98544973
-51.751404	-0.924794	-69.097725	0	0	0	1
-52.402851	13.947897	-72.325066	0	0	-0.16996714	0.98544973
-51.671490	-1.614229	-68.950706	0	0	0	1
-52.382641	14.672387	-72.484886	0	0	0	1
-51.587349	-2.301747	-68.804329	0	0	0	1
-52.357578	15.398112	-72.645226	0	0	0	1
-51.499008	-2.987321	-68.658600	0	0	0	1
-52.327625	16.125027	-72.806061	0	0	0	1
-51.406506	-3.670926	-68.513535	0	0	0	1
-52.292770	16.853109	-72.967400	0	0	0	1
-51.309864	-4.352540	-68.369141	0	0	-0.070737201	0.99749499
-52.252979	17.582315	-73.129227	0	0	0	1
-51.209118	-5.032136	-68.225410	0	0	-0.070737201	0.99749499
-52.208233	18.312616	-73.291542	0	0	0	1
-51.104301	-5.709694	-68.082375	0	0	-0.070737201	0.99749499
-52.158501	19.043970	-73.454330	0	0	0	1
-50.995441	-6.385187	-67.940010	0	0	-0.070737201	0.99749499
-50.882565	-7.058594	-67.798347	0	0	-0.070737201	0.99749499
-52.103775	19.776344	-73.617599	0	0	0	1
-50.765713	-7.729893	-67.657379	0	0	-0.070737201	0.99749499
-52.044010	20.509701	-73.781326	0	0	0	1
-50.644897	-8.399065	-67.517105	0	0	0	1
-51.979202	21.244005	-73.945518	0	0	0	1
-50.520164	-9.066085	-67.377541	0	0	0	1
-51.909321	21.979212	-74.110161	0	0	0	1
-50.391541	-9.730933	-67.238686	0	0	0	1
-51.834343	22.715288	-74.275246	0	0	0	1
-50.259060	-10.393588	-67.100555	0	0	0	1
-51.754250	23.452200	-74.440781	0	0	0	1
-50.122746	-11.054031	-66.963135	0	0	0	1
-51.669018	24.189905	-74.606735	0	0	0	1
-49.982639	-11.712241	-66.826454	0	0	0	1
-51.578625	24.928364	-74.773132	0	0	0	1
-49.838764	-12.368202	-66.690506	0	0	0	1
-51.483051	25.667538	-74.939941	0	0	0	1
-49.691154	-13.021891	-66.555298	0	0	0	1
-51.382275	26.407389	-75.107162	0	0	0	1
-49.539841	-13.673287	-66.420830	0	0	0	1
-51.276279	27.147877	-75.274796	0	0	0	1
-49.384857	-14.322380	-66.287125	0	0	0	1
-49.226234	-14.969148	-66.154160	0	0	0	1
-51.165039	27.888958	-75.442825	0	0	0	1
-49.063995	-15.613574	-66.021965	0	0	0	1
-51.048538	28.630596	-75.611252	0	0	0	1
-48.898182	-16.255640	-65.890533	0	0	0	1
-50.926762	29.372746	-75.780060	0	0	0	1
-48.728821	-16.895332	-65.759872	0	0	0	1
-50.799679	30.115374	-75.949257	0	0	0	1
-48.555943	-17.532633	-65.629974	0	0	0	1
-50.667278	30.858437	-76.118820	0	0	0	1
-48.379589	-18.167524	-65.500885	0	0	0	1
-50.529541	31.601881	-76.288757	0	0	-0.26749883	0.96355818
-48.199776	-18.799995	-65.372559	0	0	0	1
-50.386456	32.345680	-76.459053	0	0	-0.26749883	0.96355818
-48.016544	-19.430025	-65.245033	0	0	0	1
-47.829929	-20.057610	-65.118309	0	0	0.029199523	0.9995736
-50.237991	33.089783	-76.629700	0	0	-0.26749883	0.96355818
-47.639954	-20.682726	-64.992371	0	0	0.029199523	0.9995736
-50.084141	33.834152	-76.800690	0	0	-0.26749883	0.96355818
-47.446651	-21.305363	-64.867256	0	0	0.029199523	0.9995736
-49.924885	34.578739	-76.972031	0	0	-0.26749883	0.96355818
-47.250061	-21.925507	-64.742943	0	0	0.029199523	0.9995736
-49.760208	35.323502	-77.143700	0	0	-0.26749883	0.96355818
-47.050205	-22.543148	-64.619453	0	0	0.029199523	0.9995736
-49.590092	36.068401	-77.315697	0	0	-0.26749883	0.96355818
-46.847118	-23.158268	-64.496780	0	0	0.029199523	0.9995736
-49.414524	36.813381	-77.488014	0	0	-0.26749883	0.96355818
-46.640831	-23.770863	-64.374931	0	0	0.029199523	0.9995736
-46.431374	-24.380913	-64.253914	0	0	0.029199523	0.9995736
-49.233486	37.558418	-77.660645	0	0	-0.26749883	0.96355818
-46.218788	-24.988413	-64.133736	0	0	0.029199523	0.9995736
-49.046963	38.303452	-77.833580	0	0	0	1
-46.003090	-25.593348	-64.014389	0	0	0.029199523	0.9995736
-48.854946	39.048443	-78.006813	0	0	0	1
-45.784321	-26.195707	-63.895897	0	0	0.029199523	0.9995736
-48.657417	39.793346	-78.180336	0	0	0	1
-45.562519	-26.795486	-63.778255	0	0	0.029199523	0.9995736
-48.454361	40.538109	-78.354156	0	0	0	1
-45.337692	-27.392670	-63.661457	0	0	0.029199523	0.9995736
-45.109898	-27.987251	-63.545532	0	0	0.029199523	0.9995736
-48.245766	41.282707	-78.528252	0	0	0	1
-44.879150	-28.579220	-63.430462	0	0	0	1
-48.031624	42.027069	-78.702614	0	0	0	1
-44.645485	-29.168571	-63.316265	0	0	0	1
-47.811920	42.771156	-78.877243	0	0	0	1
-44.408936	-29.755291	-63.202938	0	0	0	1
-47.586636	43.514938	-79.052132	0	0	0	1
-44.169529	-30.339373	-63.090485	0	0	0	1
-43.927299	-30.920815	-62.978912	0	0	0	1
-47.355770	44.258354	-79.227272	0	0	0	1
-43.682274	-31.499603	-62.868229	0	0	0	1
-47.119301	45.001358	-79.402657	0	0	0	1
-43.434490	-32.075733	-62.758434	0	0	0	1
-46.877232	45.743900	-79.578278	0	0	0	1
-43.183971	-32.649204	-62.649540	0	0	0	1
-46.629543	46.485939	-79.754128	0	0	0	1
-42.930752	-33.220005	-62.541538	0	0	0	1
-42.674862	-33.788128	-62.434448	0	0	0	1
-46.376225	47.227432	-79.930206	0	0	0	1
-42.416328	-34.353569	-62.328255	0	0	0.1288445	0.99166481
-46.117271	47.968327	-80.106499	0	0	0	1
-42.155186	-34.916328	-62.222980	0	0	0.1288445	0.99166481
-45.852673	48.708569	-80.282997	0	0	0	1
-41.891464	-35.476398	-62.118618	0	0	0.1288445	0.99166481
-45.582417	49.448116	-80.459702	0	0	0	1
-41.625191	-36.033772	-62.015182	0	0	0.1288445	0.99166481
-41.356392	-36.588448	-61.912659	0	0	0.1288445	0.99166481
-45.306507	50.186924	-80.636604	0	0	0	1
-41.085102	-37.140423	-61.811069	0	0	0.1288445	0.99166481
-45.024921	50.924938	-80.813698	0	0	-0.36235775	0.93203909
-40.811352	-37.689693	-61.710415	0	0	0.1288445	0.99166481
-44.737667	51.662109	-80.990967	0	0	-0.36235775	0.93203909
-40.535168	-38.236259	-61.610691	0	0	0.1288445	0.99166481
-44.444729	52.398392	-81.168419	0	0	-0.36235775	0.93203909
-40.256588	-38.780113	-61.511913	0	0	0.1288445	0.99166481
-39.975628	-39.321259	-61.414082	0	0	0.1288445	0.99166481
-44.146103	53.133739	-81.346024	0	0	-0.36235775	0.93203909
-39.692326	-39.859688	-61.317192	0	0	0.1288445	0.99166481
-43.841785	53.868092	-81.523804	0	0	-0.36235775	0.93203909
-39.406704	-40.395405	-61.221256	0	0	0.1288445	0.99166481
-43.531765	54.601414	-81.701729	0	0	-0.36235775	0.93203909
-39.118793	-40.928402	-61.126274	0	0	0.1288445	0.99166481
-38.828617	-41.458687	-61.032242	0	0	0.1288445	0.99166481
-43.216045	55.333652	-81.879807	0	0	-0.36235775	0.93203909
-38.536224	-41.986252	-60.939190	0	0	0.1288445	0.99166481
-42.894619	56.064747	-82.058029	0	0	-0.36235775	0.93203909
-38.241615	-42.511097	-60.847084	0	0	0.1288445	0.99166481
-42.567486	56.794662	-82.236374	0	0	-0.36235775	0.93203909
-37.944836	-43.033230	-60.755962	0	0	0.1288445	0.99166481
-37.645912	-43.552643	-60.665813	0	0	0.1288445	0.99166481
-42.234634	57.523338	-82.414848	0	0	-0.36235775	0.93203909
-37.344868	-44.069344	-60.576637	0	0	0.1288445	0.99166481
-41.896072	58.250725	-82.593437	0	0	-0.36235775	0.93203909
-37.041733	-44.583328	-60.488457	0	0	0.1288445	0.99166481
-41.551788	58.976784	-82.772148	0	0	-0.36235775	0.93203909
-36.736530	-45.094601	-60.401241	0	0	0.1288445	0.99166481
-36.429295	-45.603161	-60.315029	0	0	0.1288445	0.99166481
-41.201790	59.701443	-82.950951	0	0	-0.36235775	0.93203909
-36.120041	-46.109013	-60.229797	0	0	0	1
-40.846069	60.424675	-83.129868	0	0	-0.36235775	0.93203909
-35.808800	-46.612156	-60.145557	0	0	0	1
-40.484631	61.146412	-83.308861	0	0	-0.36235775	0.93203909
-35.495605	-47.112595	-60.062317	0	0	0	1
-35.180481	-47.610329	-59.980083	0	0	0	1
-40.117462	61.866623	-83.487946	0	0	0	1
-34.863449	-48.105366	-59.898849	0	0	0.22720209	0.97384763
-39.744587	62.585228	-83.667091	0	0	0	1
-34.544537	-48.597710	-59.818630	0	0	0.22720209	0.97384763
-39.365982	63.302200	-83.846321	0	0	0	1
-34.223774	-49.087364	-59.739422	0	0	0.22720209	0.97384763
-33.901173	-49.574329	-59.661217	0	0	0.22720209	0.97384763
-38.981663	64.017479	-84.025604	0	0	0	1
-33.576778	-50.058605	-59.584038	0	0	0.22720209	0.97384763
-38.591633	64.731010	-84.204956	0	0	0	1
-33.250595	-50.540211	-59.507874	0	0	0.22720209	0.97384763
-38.195885	65.442749	-84.384338	0	0	0	1
-32.922665	-51.019138	-59.432735	0	0	0.22720209	0.97384763
-32.593002	-51.495392	-59.358624	0	0	0.22720209	0.97384763
-37.794430	66.152641	-84.563774	0	0	0	1
-32.261635	-51.968987	-59.285538	0	0	0.22720209	0.97384763
-37.387268	66.860634	-84.743240	0	0	0	1
-31.928581	-52.439922	-59.213478	0	0	0.22720209	0.97384763
-31.593880	-52.908203	-59.142467	0	0	0.22720209	0.97384763
-36.974407	67.566681	-84.922737	0	0	0	1
-31.257534	-53.373837	-59.072483	0	0	0.22720209	0.97384763
-36.555840	68.270729	-85.102249	0	0	0	1
-30.919582	-53.836834	-59.003544	0	0	0.22720209	0.97384763
-36.131592	68.972710	-85.281769	0	0	0	1
-30.580040	-54.297192	-58.935646	0	0	0.22720209	0.97384763
-30.238935	-54.754929	-58.868797	0	0	0.22720209	0.97384763
-35.701653	69.672600	-85.461296	0	0	0	1
-29.896284	-55.210037	-58.802986	0	0	0.22720209	0.97384763
-35.266029	70.370331	-85.640831	0	0	-0.45359611	0.89120736
-29.552118	-55.662537	-58.738243	0	0	0.22720209	0.97384763
-29.206444	-56.112431	-58.674538	0	0	0.22720209	0.97384763
-34.824738	71.065849	-85.820351	0	0	-0.45359611	0.89120736
-28.859306	-56.559723	-58.611897	0	0	0.22720209	0.97384763
-34.377773	71.759109	-85.999855	0	0	-0.45359611	0.89120736
-28.510704	-57.004421	-58.550308	0	0	0.22720209	0.97384763
-33.925156	72.450050	-86.179337	0	0	-0.45359611	0.89120736
-28.160671	-57.446537	-58.489784	0	0	0.22720209	0.97384763
-27.809229	-57.886082	-58.430328	0	0	0.22720209	0.97384763
-33.466881	73.138641	-86.358788	0	0	-0.45359611	0.89120736
-27.456387	-58.323055	-58.371925	0	0	0.22720209	0.97384763
-33.002975	73.824806	-86.538200	0	0	-0.45359611	0.89120736
-27.105085	-58.758827	-58.310017	0	0	0.22720209	0.97384763
-26.760756	-59.196049	-58.235985	0	0	0.22720209	0.97384763
-32.533432	74.508499	-86.717567	0	0	-0.45359611	0.89120736
-26.415012	-59.630856	-58.163055	0	0	0.22720209	0.97384763
-32.058270	75.189674	-86.896889	0	0	-0.45359611	0.89120736
-26.067873	-60.063267	-58.091228	0	0	0.22720209	0.97384763
-25.719351	-60.493282	-58.020508	0	0	0	1
-31.577494	75.868279	-87.076157	0	0	-0.45359611	0.89120736
-25.369465	-60.920914	-57.950890	0	0	0	1
-31.091118	76.544258	-87.255348	0	0	-0.45359611	0.89120736
-25.018236	-61.346169	-57.882385	0	0	0	1
-24.665674	-61.769062	-57.814987	0	0	0	1
-30.599154	77.217552	-87.434471	0	0	-0.45359611	0.89120736
-24.311804	-62.189590	-57.748714	0	0	0	1
-23.956638	-62.607765	-57.683552	0	0	0	1
-30.101610	77.888130	-87.613518	0	0	-0.45359611	0.89120736
-23.600195	-63.023605	-57.619518	0	0	0	1
-29.598505	78.555916	-87.792465	0	0	-0.45359611	0.89120736
-23.242485	-63.437107	-57.556599	0	0	0	1
-29.089849	79.220871	-87.971336	0	0	-0.45359611	0.89120736
-28.575655	79.882942	-88.150093	0	0	-0.45359611	0.89120736
-28.055943	80.542076	-88.328751	0	0	-0.45359611	0.89120736
-23.722155	-64.319672	-58.168423	0	0	0	1
-27.530714	81.198227	-88.507286	0	0	-0.45359611	0.89120736
-27.000000	81.851326	-88.685707	0	0	-0.45359611	0.89120736
-26.463800	82.501343	-88.863998	0	0	-0.45359611	0.89120736
-25.922148	83.148209	-89.042152	0	0	0	1
-25.375055	83.791870	-89.220161	0	0	0	1
-24.822531	84.432297	-89.398018	0	0	0	1
-24.264593	85.069427	-89.575722	0	0	0	1
-23.701279	85.703186	-89.753258	0	0	0	1
-23.132589	86.333557	-89.930634	0	0	0	1
-26.829687	-66.713448	-60.905495	0	0	0	1
-22.558548	86.960472	-90.107819	0	0	0	1
-21.979177	87.583885	-90.284828	0	0	0	1
-21.394495	88.203743	-90.461639	0	0	0	1
-20.804535	88.819984	-90.638252	0	0	-0.54030229	0.84147099
-20.209303	89.432579	-90.814659	0	0	-0.54030229	0.84147099
-19.608822	90.041466	-90.990852	0	0	-0.54030229	0.84147099
-19.003126	90.646584	-91.166832	0	0	-0.54030229	0.84147099
-18.392231	91.247902	-91.342575	0	0	-0.54030229	0.84147099
-17.776165	91.845360	-91.518089	0	0	-0.54030229	0.84147099
-30.218439	-69.326393	-63.892456	0	0	0	1
-17.154951	92.438904	-91.693359	0	0	-0.54030229	0.84147099
-16.528612	93.028488	-91.868393	0	0	-0.54030229	0.84147099
-15.897175	93.614067	-92.043159	0	0	-0.54030229	0.84147099
-15.260666	94.195587	-92.217674	0	0	-0.54030229	0.84147099
-14.619118	94.772995	-92.391907	0	0	-0.54030229	0.84147099
-13.972549	95.346245	-92.565880	0	0	-0.54030229	0.84147099
-13.320987	95.915291	-92.739571	0	0	-0.54030229	0.84147099
-12.664467	96.480080	-92.912956	0	0	-0.54030229	0.84147099
-12.003012	97.040573	-93.086060	0	0	-0.54030229	0.84147099
-11.336658	97.596703	-93.258858	0	0	-0.54030229	0.84147099
-33.929180	-72.190201	-67.165466	0	0	0	1
-10.665429	98.148438	-93.431343	0	0	-0.54030229	0.84147099
-9.989352	98.695724	-93.603516	0	0	-0.54030229	0.84147099
-9.308470	99.238510	-93.775368	0	0	-0.54030229	0.84147099
-8.622807	99.776749	-93.946884	0	0	-0.54030229	0.84147099
-7.932389	100.310402	-94.118057	0	0	-0.54030229	0.84147099
-7.237263	100.839417	-94.288902	0	0	-0.54030229	0.84147099
-6.537449	101.363747	-94.459389	0	0	-0.54030229	0.84147099
-5.832984	101.883347	-94.629524	0	0	0	1
-5.123912	102.398163	-94.799294	0	0	0	1
-4.410252	102.908157	-94.968681	0	0	0	1
-3.692042	103.413277	-95.137703	0	0	0	1
-38.011032	-75.343086	-70.768105	0	0	0	1
-2.969328	103.913490	-95.306351	0	0	0	1
-2.242138	104.408737	-95.474586	0	0	0	1
-1.510508	104.898979	-95.642448	0	0	-0.62160997	0.7833269
-0.774482	105.384171	-95.809883	0	0	-0.62160997	0.7833269
-0.034089	105.864265	-95.976929	0	0	-0.62160997	0.7833269
0.710628	106.339226	-96.143539	0	0	-0.62160997	0.7833269
1.459633	106.809006	-96.309738	0	0	-0.62160997	0.7833269
2.212891	107.273560	-96.475502	0	0	-0.62160997	0.7833269
2.970354	107.732841	-96.640839	0	0	-0.62160997	0.7833269
3.731981	108.186813	-96.805717	0	0	-0.62160997	0.7833269
4.497742	108.635437	-96.970161	0	0	-0.62160997	0.7833269
-42.523643	-78.831406	-74.753273	0	0	0	1
5.267587	109.078659	-97.134140	0	0	-0.62160997	0.7833269
6.041481	109.516441	-97.297661	0	0	-0.62160997	0.7833269
6.819376	109.948753	-97.460709	0	0	-0.62160997	0.7833269
7.601235	110.375542	-97.623283	0	0	-0.62160997	0.7833269
8.387015	110.796768	-97.785378	0	0	-0.62160997	0.7833269
9.176670	111.212395	-97.946983	0	0	-0.62160997	0.7833269
9.970163	111.622383	-98.108086	0	0	-0.62160997	0.7833269
10.767438	112.026695	-98.268700	0	0	-0.62160997	0.7833269
11.568463	112.425285	-98.428802	0	0	-0.62160997	0.7833269
12.373183	112.818115	-98.588387	0	0	-0.62160997	0.7833269
13.181557	113.205154	-98.747459	0	0	-0.62160997	0.7833269
13.993541	113.586357	-98.906006	0	0	-0.62160997	0.7833269
-47.540157	-82.712021	-79.185837	0	0	0	1
14.809088	113.961693	-99.064018	0	0	-0.62160997	0.7833269
15.628143	114.331116	-99.221481	0	0	-0.62160997	0.7833269
16.450672	114.694595	-99.378418	0	0	-0.62160997	0.7833269
17.276623	115.052094	-99.534782	0	0	-0.62160997	0.7833269
18.105947	115.403580	-99.690598	0	0	-0.62160997	0.7833269
18.938593	115.749008	-99.845856	0	0	0	1
19.774519	116.088348	-100.000542	0	0	0	1
20.613670	116.421577	-100.154663	0	0	0	1
21.455999	116.748634	-100.308182	0	0	0	1
22.301455	117.069519	-100.461128	0	0	-0.69670669	0.71735611
23.149988	117.384171	-100.613480	0	0	-0.69670669	0.71735611
24.001553	117.692574	-100.765221	0	0	-0.69670669	0.71735611
24.856087	117.994682	-100.916367	0	0	-0.69670669	0.71735611
25.713549	118.290474	-101.066887	0	0	-0.69670669	0.71735611
-53.151253	-87.055450	-84.146240	0	0	0	1
26.573885	118.579918	-101.216797	0	0	-0.69670669	0.71735611
27.437038	118.862984	-101.366081	0	0	-0.69670669	0.71735611
28.302965	119.139633	-101.514740	0	0	-0.69670669	0.71735611
29.171604	119.409843	-101.662766	0	0	-0.69670669	0.71735611
30.042906	119.673584	-101.810158	0	0	-0.69670669	0.71735611
30.916819	119.930817	-101.956886	0	0	-0.69670669	0.71735611
31.793285	120.181534	-102.102966	0	0	-0.69670669	0.71735611
32.672256	120.425682	-102.248390	0	0	-0.69670669	0.71735611
33.553665	120.663261	-102.393150	0	0	-0.69670669	0.71735611
34.437477	120.894218	-102.537239	0	0	-0.69670669	0.71735611
35.323620	121.118546	-102.680656	0	0	-0.69670669	0.71735611
36.212044	121.336212	-102.823387	0	0	-0.69670669	0.71735611
37.102699	121.547188	-102.965424	0	0	-0.69670669	0.71735611
37.995522	121.751450	-103.106781	0	0	-0.69670669	0.71735611
38.890457	121.948982	-103.247437	0	0	-0.69670669	0.71735611
-59.470741	-91.950150	-89.735405	0	0	0	1
39.787445	122.139748	-103.387390	0	0	-0.69670669	0.71735611
40.686443	122.323730	-103.526634	0	0	-0.69670669	0.71735611
41.587379	122.500916	-103.665154	0	0	-0.69670669	0.71735611
42.490200	122.671265	-103.802963	0	0	-0.69670669	0.71735611
43.394852	122.834763	-103.940033	0	0	-0.69670669	0.71735611
44.301277	122.991394	-104.076393	0	0	-0.69670669	0.71735611
45.209408	123.141136	-104.211998	0	0	-0.69670669	0.71735611
46.119194	123.283966	-104.346870	0	0	-0.69670669	0.71735611
47.030575	123.419861	-104.481003	0	0	0	1
47.943501	123.548813	-104.614365	0	0	0	1
48.857895	123.670792	-104.746986	0	0	0	1
49.773438	123.814690	-104.837555	0	0	0	1
50.690536	124.003983	-104.852539	0	0	0	1
51.609955	124.186317	-104.866653	0	0	-0.69670669	0.71735611
52.531639	124.361679	-104.879890	0	0	-0.69670669	0.71735611
53.455524	124.530029	-104.892250	0	0	-0.69670669	0.71735611
54.381554	124.691345	-104.903748	0	0	-0.69670669	0.71735611
55.309662	124.845589	-104.914360	0	0	-0.69670669	0.71735611
56.239799	124.992752	-104.924110	0	0	-0.69670669	0.71735611
-66.643669	-97.508896	-96.081993	0	0	0	1
57.171898	125.132805	-104.932983	0	0	-0.69670669	0.71735611
58.105900	125.265709	-104.940971	0	0	-0.69670669	0.71735611
59.041744	125.391449	-104.948105	0	0	-0.69670669	0.71735611
59.979366	125.510002	-104.954346	0	0	-0.69670669	0.71735611
60.918705	125.621338	-104.959717	0	0	-0.69670669	0.71735611
61.859703	125.725441	-104.964218	0	0	-0.69670669	0.71735611
62.802292	125.822281	-104.967834	0	0	-0.69670669	0.71735611
63.746414	125.911842	-104.970573	0	0	-0.69670669	0.71735611
64.692001	125.994102	-104.972435	0	0	-0.69670669	0.71735611
65.639000	126.069046	-104.973434	0	0	-0.69670669	0.71735611
66.587334	126.136642	-104.973549	0	0	-0.69670669	0.71735611
67.536949	126.196877	-104.972786	0	0	-0.69670669	0.71735611
68.487785	126.249725	-104.971153	0	0	-0.69670669	0.71735611
69.439758	126.295181	-104.968628	0	0	-0.69670669	0.71735611
70.392822	126.333221	-104.965248	0	0	-0.69670669	0.71735611
71.346909	126.363831	-104.960983	0	0	-0.69670669	0.71735611
72.301949	126.386986	-104.955841	0	0	-0.69670669	0.71735611
73.257881	126.402679	-104.949821	0	0	-0.69670669	0.71735611
74.214638	126.410889	-104.942924	0	0	-0.69670669	0.71735611
75.172150	126.411613	-104.935158	0	0	-0.69670669	0.71735611
76.130363	126.404823	-104.926514	0	0	-0.69670669	0.71735611
77.089203	126.390518	-104.917000	0	0	-0.69670669	0.71735611
78.048607	126.368675	-104.906616	0	0	-0.69670669	0.71735611
-74.857079	-103.877090	-103.351883	0	0	0	1
79.008499	126.339287	-104.895348	0	0	-0.69670669	0.71735611
79.968819	126.302345	-104.883217	0	0	-0.69670669	0.71735611
80.929504	126.257843	-104.870201	0	0	-0.69670669	0.71735611
81.890488	126.205757	-104.856316	0	0	-0.69670669	0.71735611
82.851700	126.146095	-104.841568	0	0	-0.69670669	0.71735611
83.813072	126.078827	-104.825935	0	0	-0.69670669	0.71735611
84.774536	126.003967	-104.809441	0	0	-0.69670669	0.71735611
85.736023	125.921501	-104.792076	0	0	-0.69670669	0.71735611
86.697479	125.831421	-104.773834	0	0	-0.69670669	0.71735611
87.658821	125.733719	-104.754745	0	0	-0.69670669	0.71735611
88.619980	125.628387	-104.734772	0	0	-0.69670669	0.71735611
89.580902	125.515434	-104.713936	0	0	-0.69670669	0.71735611
90.541512	125.394844	-104.692230	0	0	-0.69670669	0.71735611
91.501740	125.266617	-104.669662	0	0	-0.69670669	0.71735611
92.461517	125.130753	-104.646225	0	0	-0.69670669	0.71735611
124.155464	-87.721573	-46.403400	0	0	0.97095818	0.23924928
93.420776	124.987251	-104.621933	0	0	-0.76484218	0.64421769
123.869087	-88.585526	-47.210758	0	0	0.97095818	0.23924928
94.379456	124.836105	-104.596771	0	0	-0.76484218	0.64421769
95.337479	124.677322	-104.570755	0	0	-0.76484218	0.64421769
123.573425	-89.409203	-47.985378	0	0	0	1
96.294777	124.510895	-104.543884	0	0	-0.76484218	0.64421769
123.270531	-90.194427	-48.728378	0	0	0.97095818	0.23924928
125.922241	-88.797798	-46.950214	0	0	0	1
97.251297	124.336823	-104.516136	0	0	-0.76484218	0.64421769
122.962242	-90.942879	-49.440815	0	0	0.97095818	0.23924928
98.206947	124.155121	-104.487541	0	0	-0.76484218	0.64421769
99.161667	123.965782	-104.458084	0	0	-0.76484218	0.64421769
122.650215	-91.656273	-50.123810	0	0	0	1
100.115402	123.768814	-104.427773	0	0	-0.76484218	0.64421769
122.335907	-92.336220	-50.778435	0	0	0	1
101.068069	123.564217	-104.396614	0	0	-0.76484218	0.64421769
122.020645	-92.984222	-51.405712	0	0	0.97095818	0.23924928
102.019600	123.351997	-104.364594	0	0	-0.76484218	0.64421769
121.705566	-93.601837	-52.006721	0	0	0.94222235	0.33498812
102.969933	123.132149	-104.331711	0	0	-0.76484218	0.64421769
121.391701	-94.190445	-52.582439	0	0	0.94222235	0.33498812
103.918991	122.904701	-104.298004	0	0	-0.76484218	0.64421769
121.079964	-94.751419	-53.133850	0	0	0.94222235	0.33498812
128.556076	-90.895836	-48.191345	0	0	0	1
104.866714	122.669640	-104.263420	0	0	-0.76484218	0.64421769
120.771133	-95.286057	-53.661915	0	0	0.94222235	0.33498812
-84.357552	-111.246437	-111.763779	0	0	0	1
120.465919	-95.795601	-54.167542	0	0	0	1
105.813034	122.426979	-104.228004	0	0	-0.76484218	0.64421769
120.164932	-96.281227	-54.651615	0	0	0	1
106.757874	122.176735	-104.191742	0	0	-0.76484218	0.64421769
119.868690	-96.744064	-55.115005	0	0	0.94222235	0.33498812
107.701172	121.918900	-104.154633	0	0	-0.76484218	0.64421769
119.577637	-97.185188	-55.558533	0	0	0	1
119.292175	-97.605598	-55.982986	0	0	0.94222235	0.33498812
108.642853	121.653503	-104.116669	0	0	-0.76484218	0.64421769
119.012634	-98.006271	-56.389122	0	0	0.94222235	0.33498812
118.739296	-98.388123	-56.777679	0	0	0.94222235	0.33498812
109.582863	121.380539	-104.077881	0	0	-0.76484218	0.64421769
118.472382	-98.752007	-57.149342	0	0	0	1
110.521118	121.100021	-104.038231	0	0	-0.76484218	0.64421769
118.212097	-99.098763	-57.504795	0	0	0	1
117.958572	-99.429161	-57.844673	0	0	0	1
117.711952	-99.743942	-58.169586	0	0	0.90407214	0.42737988
111.457565	120.811966	-103.997765	0	0	-0.76484218	0.64421769
117.472313	-100.043800	-58.480114	0	0	0	1
117.239723	-100.329422	-58.776829	0	0	0.90407214	0.42737988
112.392120	120.516380	-103.956444	0	0	-0.76484218	0.64421769
117.014206	-100.601425	-59.060272	0	0	0.90407214	0.42737988
131.513458	-93.251610	-49.584942	0	0	0	1
116.795807	-100.860413	-59.330936	0	0	0.90407214	0.42737988
116.584496	-101.106949	-59.589329	0	0	0	1
113.324722	120.213280	-103.914284	0	0	-0.76484218	0.64421769
116.380272	-101.341560	-59.835907	0	0	0	1
116.183113	-101.564766	-60.071110	0	0	0.90407214	0.42737988
115.992966	-101.777046	-60.295368	0	0	0	1
114.255302	119.902679	-103.871307	0	0	-0.76484218	0.64421769
115.809784	-101.978851	-60.509087	0	0	0	1
115.633499	-102.170609	-60.712650	0	0	0.90407214	0.42737988
115.464020	-102.352768	-60.906448	0	0	0.90407214	0.42737988
115.301315	-102.525658	-61.090797	0	0	0.85688874	0.51550139
115.183800	119.584587	-103.827484	0	0	-0.76484218	0.64421769
115.145256	-102.689697	-61.266068	0	0	0.85688874	0.51550139
114.995758	-102.845222	-61.432571	0	0	0	1
114.852753	-102.992561	-61.590607	0	0	0	1
114.716103	-103.132042	-61.740494	0	0	0	1
114.585739	-103.263939	-61.882473	0	0	0.85688874	0.51550139
116.110138	119.259026	-103.782837	0	0	-0.76484218	0.64421769
115.066338	-103.146439	-61.960793	0	0	0.85688874	0.51550139
117.034248	118.926010	-103.737350	0	0	-0.76484218	0.64421769
115.851349	-102.901115	-62.010269	0	0	0.85688874	0.51550139
117.956078	118.585548	-103.691040	0	0	-0.76484218	0.64421769
116.634445	-102.650368	-62.060566	0	0	0.85688874	0.51550139
118.875542	118.237663	-103.643913	0	0	-0.76484218	0.64421769
117.415573	-102.394218	-62.111679	0	0	0.85688874	0.51550139
119.792580	117.882378	-103.595963	0	0	-0.76484218	0.64421769
118.194710	-102.132683	-62.163612	0	0	0.85688874	0.51550139
118.971794	-101.865768	-62.216358	0	0	0.90407214	0.42737988
120.707123	117.519699	-103.547180	0	0	-0.76484218	0.64421769
119.746811	-101.593506	-62.269917	0	0	0.90407214	0.42737988
121.619110	117.149651	-103.497581	0	0	-0.76484218	0.64421769
120.519699	-101.315903	-62.324291	0	0	0.90407214	0.42737988
122.528473	116.772255	-103.447166	0	0	-0.76484218	0.64421769
134.855652	-95.913910	-51.159866	0	0	0	1
121.290436	-101.032982	-62.379459	0	0	0.90407214	0.42737988
123.435143	116.387527	-103.395935	0	0	-0.76484218	0.64421769
122.058975	-100.744766	-62.435444	0	0	0.90407214	0.42737988
124.339050	115.995499	-103.343887	0	0	-0.76484218	0.64421769
122.825272	-100.451263	-62.492222	0	0	0.90407214	0.42737988
123.589294	-100.152512	-62.549809	0	0	0.90407214	0.42737988
125.240135	115.596184	-103.291031	0	0	-0.76484218	0.64421769
124.350998	-99.848511	-62.608192	0	0	0.90407214	0.42737988
126.138329	115.189598	-103.237358	0	0	-0.82533563	0.56464246
125.110352	-99.539291	-62.667370	0	0	0.90407214	0.42737988
127.033569	114.775772	-103.182884	0	0	-0.82533563	0.56464246
125.867317	-99.224861	-62.727337	0	0	0.90407214	0.42737988
127.925781	114.354736	-103.127602	0	0	-0.82533563	0.56464246
126.621849	-98.905266	-62.788109	0	0	0.90407214	0.42737988
128.814911	113.926506	-103.071518	0	0	-0.82533563	0.56464246
127.373909	-98.580498	-62.849659	0	0	0.90407214	0.42737988
128.123474	-98.250603	-62.912003	0	0	0.90407214	0.42737988
129.700882	113.491096	-103.014633	0	0	-0.82533563	0.56464246
128.870483	-97.915588	-62.975124	0	0	0.90407214	0.42737988
130.583633	113.048561	-102.956947	0	0	-0.82533563	0.56464246
129.614929	-97.575478	-63.039032	0	0	0.90407214	0.42737988
131.463104	112.598900	-102.898468	0	0	-0.82533563	0.56464246
130.356750	-97.230293	-63.103714	0	0	0.90407214	0.42737988
132.339233	112.142151	-102.839188	0	0	-0.82533563	0.56464246
131.095917	-96.880066	-63.169186	0	0	0.90407214	0.42737988
133.211945	111.678337	-102.779129	0	0	-0.82533563	0.56464246
131.832397	-96.524803	-63.235413	0	0	0.94222235	0.33498812
138.660294	-98.944565	-52.952705	0	0	0.98999249	0.14112005
132.566147	-96.164543	-63.302429	0	0	0.94222235	0.33498812
134.081177	111.207497	-102.718269	0	0	-0.82533563	0.56464246
133.297134	-95.799294	-63.370201	0	0	0.94222235	0.33498812
134.946869	110.729652	-102.656624	0	0	-0.82533563	0.56464246
134.025330	-95.429092	-63.438744	0	0	0.94222235	0.33498812
135.808975	110.244827	-102.594193	0	0	-0.82533563	0.56464246
134.750687	-95.053963	-63.508057	0	0	0.94222235	0.33498812
136.667404	109.753067	-102.530983	0	0	-0.82533563	0.56464246
135.473160	-94.673912	-63.578117	0	0	0.94222235	0.33498812
136.192749	-94.288986	-63.648945	0	0	0.94222235	0.33498812
137.522110	109.254387	-102.466995	0	0	-0.82533563	0.56464246
-95.475945	-119.874138	-121.611115	0	0	0	1
136.909378	-93.899193	-63.720524	0	0	0.94222235	0.33498812
138.373016	108.748825	-102.402222	0	0	-0.82533563	0.56464246
137.623047	-93.504562	-63.792854	0	0	0.94222235	0.33498812
139.220078	108.236412	-102.336678	0	0	-0.82533563	0.56464246
138.333710	-93.105133	-63.865944	0	0	0.94222235	0.33498812
139.929565	107.808838	-102.270119	0	0	-0.82533563	0.56464246
139.041321	-92.700912	-63.939774	0	0	0.94222235	0.33498812
140.486267	107.480385	-102.202530	0	0	-0.82533563	0.56464246
139.745850	-92.291931	-64.014343	0	0	0.94222235	0.33498812
141.041443	107.148705	-102.134171	0	0	-0.82533563	0.56464246
141.595078	106.813805	-102.065048	0	0	-0.82533563	0.56464246
140.447266	-91.878220	-64.089661	0	0	0.94222235	0.33498812
142.147171	106.475685	-101.995155	0	0	-0.82533563	0.56464246
141.145538	-91.459801	-64.165703	0	0	0.94222235	0.33498812
142.697678	106.134346	-101.924515	0	0	-0.82533563	0.56464246
141.840637	-91.036705	-64.242493	0	0	0.94222235	0.33498812
143.246597	105.789795	-101.853111	0	0	-0.82533563	0.56464246
142.532532	-90.608948	-64.320007	0	0	0.94222235	0.33498812
143.793915	105.442039	-101.780960	0	0	-0.82533563	0.56464246
144.339615	105.091072	-101.708054	0	0	-0.82533563	0.56464246
143.221161	-90.176575	-64.398262	0	0	0.94222235	0.33498812
144.883667	104.736908	-101.634399	0	0	-0.82533563	0.56464246
143.906525	-89.739594	-64.477234	0	0	0.94222235	0.33498812
145.426056	104.379532	-101.560005	0	0	-0.82533563	0.56464246
144.588577	-89.298050	-64.556923	0	0	0.97095818	0.23924928
145.966766	104.018967	-101.484871	0	0	-0.82533563	0.56464246
145.267288	-88.851959	-64.637337	0	0	0.97095818	0.23924928
146.505798	103.655205	-101.408997	0	0	-0.82533563	0.56464246
143.027893	-102.423676	-55.010826	0	0	0	1
147.043106	103.288246	-101.332382	0	0	-0.82533563	0.56464246
145.942627	-88.401352	-64.718468	0	0	0.97095818	0.23924928
147.578690	102.918106	-101.255035	0	0	-0.82533563	0.56464246
146.614563	-87.946259	-64.800316	0	0	0.97095818	0.23924928
148.112534	102.544777	-101.176971	0	0	-0.82533563	0.56464246
147.283066	-87.486710	-64.882866	0	0	0.97095818	0.23924928
148.644592	102.168274	-101.098167	0	0	-0.82533563	0.56464246
147.948090	-87.022728	-64.966125	0	0	0.97095818	0.23924928
149.174881	101.788589	-101.018639	0	0	-0.82533563	0.56464246
149.703384	101.405731	-100.938400	0	0	-0.82533563	0.56464246
148.609634	-86.554352	-65.050087	0	0	0.97095818	0.23924928
150.230057	101.019707	-100.857437	0	0	-0.82533563	0.56464246
149.267624	-86.081604	-65.134750	0	0	0.97095818	0.23924928
150.754883	100.630516	-100.775764	0	0	-0.82533563	0.56464246
149.922073	-85.604500	-65.220108	0	0	0.97095818	0.23924928
151.277863	100.238167	-100.693390	0	0	-0.82533563	0.56464246
150.572937	-85.123100	-65.306160	0	0	0.97095818	0.23924928
151.798965	99.842659	-100.610291	0	0	-0.82533563	0.56464246
152.318176	99.444000	-100.526497	0	0	-0.82533563	0.56464246
151.220169	-84.637413	-65.392906	0	0	0.97095818	0.23924928
152.835495	99.042191	-100.442001	0	0	-0.82533563	0.56464246
151.863770	-84.147469	-65.480331	0	0	0.97095818	0.23924928
153.350861	98.637238	-100.356804	0	0	-0.82533563	0.56464246
152.503677	-83.653313	-65.568443	0	0	0.97095818	0.23924928
153.864288	98.229141	-100.270920	0	0	-0.82533563	0.56464246
153.139893	-83.154953	-65.657234	0	0	0.97095818	0.23924928
154.375763	97.817917	-100.184341	0	0	-0.82533563	0.56464246
154.885239	97.403557	-100.097076	0	0	-0.82533563	0.56464246
153.772369	-82.652443	-65.746696	0	0	0.97095818	0.23924928
155.392715	96.986076	-100.009125	0	0	-0.82533563	0.56464246
154.401077	-82.145798	-65.836838	0	0	0.97095818	0.23924928
155.898178	96.565475	-99.920502	0	0	-0.82533563	0.56464246
155.026016	-81.635056	-65.927643	0	0	0.97095818	0.23924928
156.401596	96.141762	-99.831192	0	0	-0.87758258	0.4794255
155.647110	-81.120247	-66.019119	0	0	0.97095818	0.23924928
156.902954	95.714928	-99.741211	0	0	-0.87758258	0.4794255
157.402237	95.284996	-99.650566	0	0	-0.87758258	0.4794255
156.264374	-80.601410	-66.111252	0	0	0.97095818	0.23924928
157.899414	94.851967	-99.559250	0	0	-0.87758258	0.4794255
156.877777	-80.078560	-66.204048	0	0	0.97095818	0.23924928
158.394485	94.415848	-99.467278	0	0	-0.87758258	0.4794255
157.487274	-79.551735	-66.297501	0	0	0.98999249	0.14112005
158.887405	93.976631	-99.374641	0	0	-0.87758258	0.4794255
158.092834	-79.020981	-66.391586	0	0	0.98999249	0.14112005
159.378189	93.534340	-99.281349	0	0	-0.87758258	0.4794255
159.866791	93.088966	-99.187401	0	0	-0.87758258	0.4794255
158.694458	-78.486313	-66.486336	0	0	0.98999249	0.14112005
160.353195	92.640526	-99.092812	0	0	-0.87758258	0.4794255
159.292099	-77.947769	-66.581726	0	0	0.98999249	0.14112005
160.837387	92.189018	-98.997581	0	0	-0.87758258	0.4794255
159.885727	-77.405396	-66.677750	0	0	0.98999249	0.14112005
161.319351	91.734459	-98.901703	0	0	-0.87758258	0.4794255
160.475342	-76.859200	-66.774414	0	0	0.98999249	0.14112005
161.799057	91.276840	-98.805191	0	0	-0.87758258	0.4794255
161.060898	-76.309235	-66.871704	0	0	0.98999249	0.14112005
162.276505	90.816185	-98.708054	0	0	-0.87758258	0.4794255
148.089737	-106.455795	-57.396095	0	0	0.98999249	0.14112005
162.751648	90.352486	-98.610275	0	0	-0.87758258	0.4794255
161.642380	-75.755516	-66.969635	0	0	0.98999249	0.14112005
163.224487	89.885750	-98.511879	0	0	-0.87758258	0.4794255
162.219772	-75.198097	-67.068176	0	0	0.98999249	0.14112005
163.694992	89.416000	-98.412857	0	0	-0.87758258	0.4794255
162.793015	-74.637001	-67.167343	0	0	0.98999249	0.14112005
164.163147	88.943222	-98.313217	0	0	-0.87758258	0.4794255
163.362122	-74.072266	-67.267128	0	0	0.98999249	0.14112005
164.628937	88.467445	-98.212975	0	0	-0.87758258	0.4794255
165.092331	87.988655	-98.112114	0	0	-0.87758258	0.4794255
163.927063	-73.503922	-67.367523	0	0	0.98999249	0.14112005
165.553314	87.506874	-98.010651	0	0	-0.87758258	0.4794255
164.487793	-72.931992	-67.468529	0	0	0.98999249	0.14112005
166.011871	87.022102	-97.908585	0	0	-0.87758258	0.4794255
165.044312	-72.356537	-67.570137	0	0	0.98999249	0.14112005
166.467987	86.534348	-97.805916	0	0	-0.87758258	0.4794255
165.596588	-71.777565	-67.672348	0	0	0.98999249	0.14112005
166.921616	86.043625	-97.702667	0	0	-0.87758258	0.4794255
166.144608	-71.195129	-67.775146	0	0	0.98999249	0.14112005
167.372772	85.549934	-97.598816	0	0	-0.87758258	0.4794255
167.821396	85.053284	-97.494385	0	0	-0.87758258	0.4794255
166.688339	-70.609253	-67.878548	0	0	0.98999249	0.14112005
168.267502	84.553688	-97.389374	0	0	-0.87758258	0.4794255
167.227768	-70.019966	-67.982536	0	0	0.98999249	0.14112005
168.711060	84.051163	-97.283791	0	0	-0.87758258	0.4794255
167.762848	-69.427322	-68.087105	0	0	0.98999249	0.14112005
169.152039	83.545692	-97.177628	0	0	-0.87758258	0.4794255
168.293594	-68.831345	-68.192245	0	0	0.98999249	0.14112005
169.590439	83.037308	-97.070892	0	0	-0.87758258	0.4794255
168.819977	-68.232063	-68.297974	0	0	0.98999249	0.14112005
170.026215	82.526009	-96.963608	0	0	-0.87758258	0.4794255
170.459351	82.011803	-96.855751	0	0	-0.87758258	0.4794255
169.341965	-67.629524	-68.404274	0	0	0.99913515	0.041580682
170.889847	81.494698	-96.747337	0	0	-0.87758258	0.4794255
169.859543	-67.023758	-68.511139	0	0	0.99913515	0.041580682
171.317673	80.974709	-96.638382	0	0	-0.87758258	0.4794255
170.372696	-66.414803	-68.618561	0	0	0.99913515	0.041580682
171.742798	80.451843	-96.528870	0	0	-0.87758258	0.4794255
170.881393	-65.802689	-68.726547	0	0	0.99913515	0.041580682
172.165207	79.926117	-96.418816	0	0	-0.87758258	0.4794255
171.385635	-65.187454	-68.835091	0	0	0.99913515	0.041580682
172.584885	79.397522	-96.308228	0	0	-0.87758258	0.4794255
173.001801	78.866096	-96.197105	0	0	-0.87758258	0.4794255
171.885376	-64.569138	-68.944183	0	0	0.99913515	0.041580682
173.415955	78.331818	-96.085449	0	0	-0.87758258	0.4794255
172.380615	-63.947769	-69.053825	0	0	0.99913515	0.041580682
173.827286	77.794724	-95.973274	0	0	-0.87758258	0.4794255
172.871338	-63.323391	-69.164001	0	0	0.99913515	0.041580682
174.235825	77.254814	-95.860573	0	0	-0.87758258	0.4794255
173.357529	-62.696037	-69.274719	0	0	0.99913515	0.041580682
174.641510	76.712090	-95.747353	0	0	-0.87758258	0.4794255
173.839157	-62.065742	-69.385971	0	0	0.99913515	0.041580682
175.044342	76.166580	-95.633629	0	0	-0.87758258	0.4794255
174.316208	-61.432545	-69.497749	0	0	0.99913515	0.041580682
175.444290	75.618286	-95.519386	0	0	-0.87758258	0.4794255
175.841339	75.067215	-95.404655	0	0	-0.87758258	0.4794255
174.788666	-60.796478	-69.610054	0	0	0.99913515	0.041580682
176.235474	74.513382	-95.289413	0	0	-0.87758258	0.4794255
175.256516	-60.157581	-69.722878	0	0	0.99913515	0.041580682
176.626663	73.956810	-95.173683	0	0	-0.87758258	0.4794255
175.719727	-59.515892	-69.836220	0	0	0.99913515	0.041580682
177.014877	73.397491	-95.057472	0	0	-0.87758258	0.4794255
176.178329	-58.871441	-69.950066	0	0	0.99913515	0.041580682
177.400131	72.835449	-94.940758	0	0	-0.87758258	0.4794255
176.632263	-58.224270	-70.064415	0	0	0.99913515	0.041580682
177.782364	72.270691	-94.823578	0	0	-0.87758258	0.4794255
178.161560	71.703239	-94.705917	0	0	-0.87758258	0.4794255
177.081528	-57.574417	-70.179276	0	0	0.99913515	0.041580682
178.537735	71.133095	-94.587784	0	0	-0.87758258	0.4794255
177.526093	-56.921917	-70.294640	0	0	0.99913515	0.041580682
178.910828	70.560272	-94.469185	0	0	-0.87758258	0.4794255
177.965973	-56.266804	-70.410484	0	0	0.99913515	0.041580682
179.280823	69.984787	-94.350121	0	0	-0.87758258	0.4794255
178.401138	-55.609119	-70.526817	0	0	0.99913515	0.041580682
179.647720	69.406654	-94.230606	0	0	-0.87758258	0.4794255
178.831589	-54.948902	-70.643639	0	0	0.99913515	0.041580682
180.011490	68.825882	-94.110641	0	0	-0.87758258	0.4794255
179.257278	-54.286179	-70.760933	0	0	0.99913515	0.041580682
180.372116	68.242485	-93.990219	0	0	-0.87758258	0.4794255
-108.667122	-130.113815	-133.297302	0	0	0	1
180.729553	67.656471	-93.869377	0	0	-0.87758258	0.4794255
179.678223	-53.620998	-70.878716	0	0	0.99913515	0.041580682
181.083801	67.067871	-93.748070	0	0	-0.87758258	0.4794255
180.094406	-52.953384	-70.996956	0	0	0.99913515	0.041580682
181.434845	66.476685	-93.626343	0	0	-0.87758258	0.4794255
180.505798	-52.283394	-71.115662	0	0	0.99913515	0.041580682
181.782654	65.882935	-93.504189	0	0	-0.87758258	0.4794255
180.912415	-51.611046	-71.234833	0	0	0.99913515	0.041580682
154.021851	-111.181152	-60.191456	0	0	0.99913515	0.041580682
182.127197	65.286621	-93.381599	0	0	-0.87758258	0.4794255
181.314209	-50.936386	-71.354454	0	0	0.99913515	0.041580682
182.468475	64.687767	-93.258606	0	0	-0.87758258	0.4794255
181.711212	-50.259453	-71.474533	0	0	0.99913515	0.041580682
182.806442	64.086395	-93.135185	0	0	-0.87758258	0.4794255
182.103378	-49.580276	-71.595055	0	0	0.99913515	0.041580682
183.141113	63.482510	-93.011368	0	0	-0.92106097	0.38941839
183.472427	62.876129	-92.887138	0	0	-0.92106097	0.38941839
182.490707	-48.898903	-71.716019	0	0	0.99913515	0.041580682
183.800385	62.267269	-92.762512	0	0	-0.92106097	0.38941839
182.873184	-48.215366	-71.837418	0	0	0.99913515	0.041580682
184.124969	61.655941	-92.637497	0	0	-0.92106097	0.38941839
183.250809	-47.529709	-71.959251	0	0	0.99913515	0.041580682
184.446152	61.042164	-92.512093	0	0	-0.92106097	0.38941839
183.623550	-46.841957	-72.081505	0	0	0.99913515	0.041580682
184.763901	60.425957	-92.386292	0	0	-0.92106097	0.38941839
183.991440	-46.152153	-72.204193	0	0	0.99913515	0.041580682
185.078232	59.807331	-92.260124	0	0	-0.92106097	0.38941839
184.354431	-45.460339	-72.327293	0	0	0.99913515	0.041580682
185.389084	59.186306	-92.133575	0	0	-0.92106097	0.38941839
184.712524	-44.766548	-72.450798	0	0	0.99913515	0.041580682
185.696457	58.562897	-92.006660	0	0	-0.92106097	0.38941839
186.000320	57.937115	-91.879379	0	0	-0.92106097	0.38941839
185.065720	-44.070820	-72.574722	0	0	0.99913515	0.041580682
186.300674	57.308987	-91.751740	0	0	-0.92106097	0.38941839
185.414001	-43.373192	-72.699043	0	0	0.99913515	0.041580682
186.597473	56.678520	-91.623741	0	0	-0.92106097	0.38941839
185.757370	-42.673695	-72.823761	0	0	0.99913515	0.041580682
186.890717	56.045734	-91.495407	0	0	-0.92106097	0.38941839
186.095795	-41.972382	-72.948875	0	0	0.99913515	0.041580682
187.180359	55.410656	-91.366714	0	0	-0.92106097	0.38941839
186.429306	-41.269272	-73.074379	0	0	0.99913515	0.041580682
187.466400	54.773293	-91.237679	0	0	-0.92106097	0.38941839
186.757858	-40.564419	-73.200256	0	0	0.99913515	0.041580682
187.748825	54.133667	-91.108322	0	0	-0.92106097	0.38941839
187.081467	-39.857849	-73.326523	0	0	0.99913515	0.041580682
188.027603	53.491795	-90.978630	0	0	-0.92106097	0.38941839
187.400116	-39.149605	-73.453156	0	0	0.99913515	0.041580682
188.302704	52.847691	-90.848618	0	0	-0.92106097	0.38941839
188.574127	52.201382	-90.718300	0	0	-0.92106097	0.38941839
187.713821	-38.439728	-73.580162	0	0	0.99913515	0.041580682
188.841843	51.552879	-90.587654	0	0	-0.92106097	0.38941839
188.022537	-37.728245	-73.707527	0	0	0.99913515	0.041580682
189.105835	50.902206	-90.456696	0	0	-0.92106097	0.38941839
188.326294	-37.015202	-73.835251	0	0	0.99913515	0.041580682
189.366089	50.249382	-90.325447	0	0	-0.92106097	0.38941839
188.625076	-36.300632	-73.963326	0	0	0.99913515	0.041580682
189.622559	49.594421	-90.193878	0	0	-0.92106097	0.38941839
188.918869	-35.584576	-74.091759	0	0	0.99913515	0.041580682
189.875259	48.937347	-90.062027	0	0	-0.92106097	0.38941839
189.207672	-34.867065	-74.220528	0	0	0.99913515	0.041580682
190.124146	48.278183	-89.929893	0	0	-0.92106097	0.38941839
189.491486	-34.148155	-74.349625	0	0	0.99913515	0.041580682
190.369202	47.616940	-89.797478	0	0	-0.92106097	0.38941839
189.770309	-33.427853	-74.479073	0	0	0.99913515	0.041580682
190.610413	46.953640	-89.664795	0	0	-0.92106097	0.38941839
190.044144	-32.706223	-74.608833	0	0	0.99913515	0.041580682
190.847763	46.288311	-89.531822	0	0	-0.92106097	0.38941839
190.312958	-31.983286	-74.738930	0	0	0.99913515	0.041580682
191.081238	45.620964	-89.398598	0	0	-0.92106097	0.38941839
191.310806	44.951626	-89.265106	0	0	-0.92106097	0.38941839
190.576782	-31.259096	-74.869331	0	0	0.99913515	0.041580682
191.536453	44.280315	-89.131348	0	0	-0.92106097	0.38941839
190.835587	-30.533670	-75.000053	0	0	0.99913515	0.041580682
191.758163	43.607056	-88.997353	0	0	-0.92106097	0.38941839
191.089386	-29.807056	-75.131073	0	0	0.99913515	0.041580682
191.975906	42.931862	-88.863098	0	0	-0.92106097	0.38941839
191.338181	-29.079290	-75.262405	0	0	0.99913515	0.041580682
192.189667	42.254765	-88.728607	0	0	-0.92106097	0.38941839
191.581955	-28.350409	-75.394028	0	0	0.99913515	0.041580682
192.399429	41.575779	-88.593887	0	0	-0.92106097	0.38941839
191.820724	-27.620449	-75.525948	0	0	0.99913515	0.041580682
192.605179	40.894928	-88.458939	0	0	-0.92106097	0.38941839
192.054459	-26.889452	-75.658142	0	0	0.99913515	0.041580682
192.806900	40.212238	-88.323761	0	0	-0.92106097	0.38941839
192.283203	-26.157444	-75.790642	0	0	0.99913515	0.041580682
193.004547	39.527721	-88.188377	0	0	-0.92106097	0.38941839
192.506912	-25.424475	-75.923386	0	0	0.99913515	0.041580682
193.198135	38.841412	-88.052765	0	0	-0.92106097	0.38941839
192.725601	-24.690571	-76.056419	0	0	0.99913515	0.041580682
193.387634	38.153328	-87.916946	0	0	-0.92106097	0.38941839
192.939285	-23.955770	-76.189720	0	0	0.99913515	0.041580682
193.573013	37.463490	-87.780930	0	0	-0.92106097	0.38941839
193.754272	36.771927	-87.644714	0	0	-0.92106097	0.38941839
193.147934	-23.220114	-76.323273	0	0	0.99913515	0.041580682
193.931396	36.078655	-87.508301	0	0	-0.92106097	0.38941839
193.351593	-22.483635	-76.457085	0	0	0.99913515	0.041580682
194.104340	35.383701	-87.371704	0	0	-0.92106097	0.38941839
193.550217	-21.746374	-76.591141	0	0	0.99913515	0.041580682
194.273102	34.687092	-87.234932	0	0	-0.92106097	0.38941839
193.743835	-21.008360	-76.725449	0	0	0.99913515	0.041580682
194.437683	33.988850	-87.097977	0	0	-0.92106097	0.38941839
193.932434	-20.269638	-76.859993	0	0	0.99913515	0.041580682
194.598022	33.288994	-86.960854	0	0	-0.92106097	0.38941839
194.116028	-19.530239	-76.994766	0	0	0.99913515	0.041580682
194.754150	32.587555	-86.823570	0	0	-0.92106097	0.38941839
194.294601	-18.790197	-77.129768	0	0	0.99913515	0.041580682
194.906021	31.884554	-86.686127	0	0	-0.92106097	0.38941839
194.468185	-18.049551	-77.265007	0	0	0.99913515	0.041580682
195.053619	31.180016	-86.548523	0	0	-0.92106097	0.38941839
194.636765	-17.308338	-77.400444	0	0	0.99913515	0.041580682
195.196930	30.473969	-86.410767	0	0	-0.95533648	0.29552023
194.800339	-16.566591	-77.536110	0	0	0.99913515	0.041580682
195.335938	29.766436	-86.272881	0	0	-0.95533648	0.29552023
194.958908	-15.824350	-77.671967	0	0	0.99913515	0.041580682
195.470627	29.057444	-86.134834	0	0	-0.95533648	0.29552023
195.112488	-15.081646	-77.808029	0	0	0.99913515	0.041580682
195.600983	28.347013	-85.996681	0	0	-0.95533648	0.29552023
195.261078	-14.338514	-77.944298	0	0	0.99913515	0.041580682
195.726974	27.635178	-85.858383	0	0	-0.95533648	0.29552023
195.404678	-13.594994	-78.080750	0	0	0.99913515	0.041580682
195.848618	26.921957	-85.719963	0	0	-0.95533648	0.29552023
195.543304	-12.851117	-78.217384	0	0	0.99913515	0.041580682
195.965866	26.207378	-85.581444	0	0	-0.95533648	0.29552023
195.676956	-12.106916	-78.354210	0	0	0.99913515	0.041580682
196.078705	25.491472	-85.442795	0	0	-0.95533648	0.29552023
195.805618	-11.362435	-78.491203	0	0	0.99913515	0.041580682
196.187134	24.774260	-85.304054	0	0	-0.95533648	0.29552023
196.291138	24.055771	-85.165215	0	0	-0.95533648	0.29552023
195.929337	-10.617702	-78.628357	0	0	0.99913515	0.041580682
196.390686	23.336033	-85.026268	0	0	-0.95533648	0.29552023
196.048065	-9.872755	-78.765686	0	0	0.99913515	0.041580682
196.485764	22.615072	-84.887245	0	0	-0.95533648	0.29552023
196.161850	-9.127626	-78.903175	0	0	0.99913515	0.041580682
196.576370	21.892914	-84.748131	0	0	-0.95533648	0.29552023
196.270691	-8.382349	-79.040810	0	0	0.99913515	0.041580682
196.662476	21.169590	-84.608932	0	0	-0.95533648	0.29552023
196.374588	-7.636962	-79.178604	0	0	0.99913515	0.041580682
196.744080	20.445124	-84.469681	0	0	-0.95533648	0.29552023
196.473541	-6.891496	-79.316536	0	0	0.99913515	0.041580682
196.821152	19.719545	-84.330345	0	0	-0.95533648	0.29552023
196.567566	-6.145988	-79.454590	0	0	0.99913515	0.041580682
196.893692	18.992884	-84.190956	0	0	-0.95533648	0.29552023
196.656662	-5.400468	-79.592796	0	0	0.99913515	0.041580682
196.961685	18.265167	-84.051521	0	0	-0.95533648	0.29552023
196.740845	-4.654975	-79.731102	0	0	0.99913515	0.041580682
197.025101	17.536421	-83.912010	0	0	-0.95533648	0.29552023
196.820114	-3.909538	-79.869545	0	0	0.99913515	0.041580682
197.083923	16.806677	-83.772484	0	0	-0.95533648	0.29552023
196.894485	-3.164195	-80.008102	0	0	0.99913515	0.041580682
197.138168	16.075964	-83.632896	0	0	-0.95533648	0.29552023
196.963959	-2.418975	-80.146774	0	0	0.99913515	0.041580682
197.187805	15.344310	-83.493286	0	0	-0.95533648	0.29552023
197.028549	-1.673914	-80.285553	0	0	0.99913515	0.041580682
197.232803	14.611743	-83.353645	0	0	-0.95533648	0.29552023
197.088257	-0.929047	-80.424408	0	0	0.99913515	0.041580682
197.273178	13.878295	-83.213982	0	0	-0.95533648	0.29552023
197.143097	-0.184401	-80.563377	0	0	0.99913515	0.041580682
197.308899	13.143994	-83.074287	0	0	0.99913515	0.041580682
197.193085	0.559985	-80.702431	0	0	0.99913515	0.041580682
197.339966	12.408871	-82.934601	0	0	0.99913515	0.041580682
197.238220	1.304080	-80.841553	0	0	0.99913515	0.041580682
197.366348	11.672956	-82.794907	0	0	0.99913515	0.041580682
197.278503	2.047854	-80.980759	0	0	0.99913515	0.041580682
197.388046	10.936276	-82.655205	0	0	0.99913515	0.041580682
197.313965	2.791271	-81.120041	0	0	0.99913515	0.041580682
197.405045	10.198867	-82.515511	0	0	0.99913515	0.041580682
197.344604	3.534299	-81.259377	0	0	0.99913515	0.041580682
197.417328	9.460753	-82.375832	0	0	0.99913515	0.041580682
197.370422	4.276909	-81.398781	0	0	0.99913515	0.041580682
197.424896	8.721971	-82.236153	0	0	0.99913515	0.041580682
197.391449	5.019066	-81.538239	0	0	0.99913515	0.041580682
197.427719	7.982546	-82.096512	0	0	0.99913515	0.041580682
197.407669	5.760740	-81.677742	0	0	0.99913515	0.041580682
197.425812	7.242512	-81.956886	0	0	0.99913515	0.041580682
197.419128	6.501901	-81.817307	0	0	0.99913515	0.041580682
161.065536	-116.791962	-63.510620	0	0	0	1
169.559509	-123.558014	-67.513191	0	0	0	1
-124.574257	-142.465454	-147.392792	0	0	0	1
179.996887	-131.872131	-72.431549	0	0	0.99913515	0.041580682
-144.136826	-157.659424	-164.730804	0	0	0	1
193.122070	-142.327286	-78.616463	0	0	0.99913515	0.041580682
210.115997	-155.864166	-86.624428	0	0	0.99913515	0.041580682
-168.784531	-176.807175	-186.579330	0	0	0	1
232.969742	-174.068817	-97.393684	0	0	0.99913515	0.041580682
-200.805222	-201.687271	-214.967468	0	0	0	1
265.324371	-199.841599	-112.639999	0	0	0.99913515	0.041580682
-244.098709	-235.331421	-253.353958	0	0	0.32328956	0.94630009
314.624664	-239.112823	-135.871536	0	0	0.99913515	0.041580682
-305.906250	-283.368927	-308.161041	0	0	0.32328956	0.94630009
398.845551	-306.200806	-175.558533	0	0	0.99913515	0.041580682
-401.360321	-357.563751	-392.809723	0	0	0.32328956	0.94630009
-85.286700	18.368400	-9.725520	0.000000	0.000000	-0.621609	0.783328
