-163.535126	-315.874878	-236.798264	0	0	0	1
-99.784821	-159.464279	-118.541702	0	0	0	1
-79.914795	-110.718506	-81.693359	0	0	0	1
-70.217781	-86.933334	-63.718475	0	0	0	1
-69.946007	-85.172607	-60.959316	0	0	0	1
-71.293358	-87.050362	-60.515068	0	0	0	1
-72.676598	-88.938034	-59.976345	0	0	0	1
-74.094116	-90.831024	-59.338802	0	0	0	1
-75.543961	-92.724297	-58.598305	0	0	0	1
-77.023842	-94.612396	-57.750946	0	0	0	1
-78.531113	-96.489464	-56.793133	0	0	0	1
-80.062759	-98.349258	-55.721672	0	0	0	1
-81.615387	-100.185181	-54.533783	0	0	0	1
-83.185234	-101.990295	-53.227230	0	0	0	1
-84.768173	-103.757378	-51.800365	0	0	0	1
-86.359718	-105.478973	-50.252182	0	0	0	1
-87.955048	-107.147469	-48.582409	0	0	0.80114363	0.59847213
-89.549026	-108.755127	-46.791550	0	0	0	1
-91.136276	-110.294212	-44.880905	0	0	0.80114363	0.59847213
-92.711143	-111.757034	-42.852688	0	0	0.80114363	0.59847213
-94.267815	-113.136047	-40.709965	0	0	0	1
-95.800369	-114.423981	-38.456741	0	0	0	1
-97.161301	-115.372902	-37.888729	0	0	0.80114363	0.59847213
-98.481758	-116.216850	-37.888729	0	0	0.80114363	0.59847213
-99.812706	-117.044144	-37.888729	0	0	0.80114363	0.59847213
-101.153946	-117.854637	-37.888729	0	0	0.80114363	0.59847213
-102.505272	-118.648216	-37.888729	0	0	0.80114363	0.59847213
-103.866455	-119.424751	-37.888729	0	0	0.80114363	0.59847213
-105.237297	-120.184128	-37.888729	0	0	0.80114363	0.59847213
-106.617569	-120.926208	-37.888729	0	0	0.80114363	0.59847213
-108.007042	-121.650887	-37.888729	0	0	0.80114363	0.59847213
-109.405540	-122.358055	-37.888729	0	0	0.80114363	0.59847213
-110.812798	-123.047592	-37.888729	0	0	0.80114363	0.59847213
-112.228615	-123.719391	-37.888729	0	0	0.80114363	0.59847213
-113.652756	-124.373337	-37.888729	0	0	0.80114363	0.59847213
-115.084991	-125.009338	-37.888729	0	0	0.80114363	0.59847213
-116.525131	-125.627296	-37.888729	0	0	0.80114363	0.59847213
-117.972908	-126.227112	-37.888729	0	0	0.80114363	0.59847213
-119.428101	-126.808685	-37.888729	0	0	0.73739371	0.67546319
-120.890495	-127.371918	-37.888729	0	0	0.73739371	0.67546319
-122.359863	-127.916740	-37.888729	0	0	0.73739371	0.67546319
-123.835945	-128.443054	-37.888729	0	0	0.73739371	0.67546319
-125.318535	-128.950775	-37.888729	0	0	0.73739371	0.67546319
-126.807381	-129.439819	-37.888729	0	0	0.73739371	0.67546319
-128.302246	-129.910126	-37.888729	0	0	0.73739371	0.67546319
-129.802917	-130.361603	-37.888729	0	0	0.73739371	0.67546319
-131.309143	-130.794189	-37.888729	0	0	0.73739371	0.67546319
-132.820679	-131.207825	-37.888729	0	0	0.73739371	0.67546319
-134.337296	-131.602417	-37.888729	0	0	0.73739371	0.67546319
-135.858749	-131.977936	-37.888729	0	0	0.73739371	0.67546319
-137.384796	-132.334290	-37.888729	0	0	0.73739371	0.67546319
-138.915207	-132.671448	-37.888729	0	0	0.73739371	0.67546319
-140.449753	-132.989349	-37.888729	0	0	0.73739371	0.67546319
-141.988129	-133.287949	-37.888729	0	0	0.73739371	0.67546319
-143.530182	-133.567184	-37.888729	0	0	0.73739371	0.67546319
-145.075592	-133.827026	-37.888729	0	0	0.73739371	0.67546319
-146.624161	-134.067413	-37.888729	0	0	0.73739371	0.67546319
-148.175629	-134.288330	-37.888729	0	0	0.73739371	0.67546319
-149.729736	-134.489746	-37.888729	0	0	0.73739371	0.67546319
-151.286255	-134.671600	-37.888729	0	0	0.73739371	0.67546319
-152.844940	-134.833893	-37.888729	0	0	0.73739371	0.67546319
-154.405548	-134.976578	-37.888729	0	0	0.73739371	0.67546319
-155.967819	-135.099640	-37.888729	0	0	0.73739371	0.67546319
-157.531509	-135.203064	-37.888729	0	0	0.73739371	0.67546319
-159.096375	-135.286835	-37.888729	0	0	0.73739371	0.67546319
-160.662186	-135.350937	-37.888729	0	0	0.73739371	0.67546319
-162.228653	-135.395355	-37.888729	0	0	0.73739371	0.67546319
-163.795578	-135.420074	-37.888729	0	0	0.73739371	0.67546319
-165.362671	-135.425110	-37.888729	0	0	0.73739371	0.67546319
-166.929718	-135.410461	-37.888729	0	0	0.73739371	0.67546319
-168.496460	-135.376114	-37.888729	0	0	0.73739371	0.67546319
-170.062637	-135.322083	-37.888729	0	0	0.73739371	0.67546319
-171.628021	-135.248367	-37.888729	0	0	0.66627604	0.74570519
-173.192337	-135.154999	-37.888729	0	0	0.66627604	0.74570519
-174.755371	-135.041977	-37.888729	0	0	0.66627604	0.74570519
-176.316849	-134.909317	-37.888729	0	0	0.66627604	0.74570519
-177.876541	-134.757050	-37.888729	0	0	0.66627604	0.74570519
-179.434204	-134.585190	-37.888729	0	0	0.66627604	0.74570519
-180.989578	-134.393784	-37.888729	0	0	0.66627604	0.74570519
-182.542435	-134.182831	-37.888729	0	0	0.66627604	0.74570519
-184.092514	-133.952393	-37.888729	0	0	0.66627604	0.74570519
-185.639557	-133.702499	-37.888729	0	0	0.66627604	0.74570519
-187.183365	-133.433167	-37.888729	0	0	0.66627604	0.74570519
-188.723633	-133.144470	-37.888729	0	0	0.66627604	0.74570519
-190.260178	-132.836441	-37.888729	0	0	0.66627604	0.74570519
-191.792740	-132.509125	-37.888729	0	0	0.66627604	0.74570519
-193.321060	-132.162582	-37.888729	0	0	0.66627604	0.74570519
-194.844894	-131.796860	-37.888729	0	0	0.66627604	0.74570519
-196.363998	-131.412003	-37.888729	0	0	0.66627604	0.74570519
-197.878174	-131.008102	-37.888729	0	0	0.66627604	0.74570519
-199.387146	-130.585205	-37.888729	0	0	0.66627604	0.74570519
-200.890686	-130.143372	-37.888729	0	0	0.66627604	0.74570519
-202.388550	-129.682693	-37.888729	0	0	0.66627604	0.74570519
-203.880508	-129.203217	-37.888729	0	0	0.66627604	0.74570519
-205.366318	-128.705032	-37.888729	0	0	0.66627604	0.74570519
-206.845764	-128.188217	-37.888729	0	0	0.66627604	0.74570519
-208.318588	-127.652863	-37.888729	0	0	0.66627604	0.74570519
-209.784576	-127.099030	-37.888729	0	0	0.66627604	0.74570519
-211.243484	-126.526817	-37.888729	0	0	0.66627604	0.74570519
-212.695084	-125.936325	-37.888729	0	0	0.66627604	0.74570519
-214.139160	-125.327637	-37.888729	0	0	0.66627604	0.74570519
-215.575470	-124.700851	-37.888729	0	0	0.66627604	0.74570519
-217.003784	-124.056068	-37.888729	0	0	0.66627604	0.74570519
-218.423889	-123.393379	-37.888729	0	0	0.66627604	0.74570519
-219.835541	-122.712906	-37.888729	0	0	0.66627604	0.74570519
-221.238541	-122.014740	-37.888729	0	0	0.66627604	0.74570519
-222.632660	-121.299011	-37.888729	0	0	0.58850112	0.8084964
-224.017670	-120.565811	-37.888729	0	0	0.58850112	0.8084964
-225.393356	-119.815262	-37.888729	0	0	0.58850112	0.8084964
-226.759506	-119.047493	-37.888729	0	0	0.58850112	0.8084964
-228.115906	-118.262611	-37.888729	0	0	0.58850112	0.8084964
-229.462326	-117.460754	-37.888729	0	0	0.58850112	0.8084964
-230.798569	-116.642036	-37.888729	0	0	0.58850112	0.8084964
-232.124405	-115.806587	-37.888729	0	0	0.58850112	0.8084964
-233.439651	-114.954552	-37.888729	0	0	0.58850112	0.8084964
-234.744080	-114.086052	-37.888729	0	0	0.58850112	0.8084964
-236.037506	-113.201233	-37.888729	0	0	0.58850112	0.8084964
-237.319702	-112.300224	-37.888729	0	0	0.58850112	0.8084964
-238.590469	-111.383179	-37.888729	0	0	0.58850112	0.8084964
-239.849625	-110.450241	-37.888729	0	0	0.58850112	0.8084964
-241.096939	-109.501549	-37.888729	0	0	0.58850112	0.8084964
-242.332245	-108.537254	-37.888729	0	0	0.58850112	0.8084964
-243.555344	-107.557518	-37.888729	0	0	0.58850112	0.8084964
-244.766022	-106.562492	-37.888729	0	0	0.58850112	0.8084964
-245.964111	-105.552330	-37.888729	0	0	0.58850112	0.8084964
-247.149399	-104.527191	-37.888729	0	0	0.58850112	0.8084964
-248.321732	-103.487236	-37.888729	0	0	0.58850112	0.8084964
-249.480881	-102.432632	-37.888729	0	0	0.58850112	0.8084964
-250.626694	-101.363548	-37.888729	0	0	0.58850112	0.8084964
-251.758987	-100.280151	-37.888729	0	0	0.58850112	0.8084964
-252.877579	-99.182610	-37.888729	0	0	0.58850112	0.8084964
-253.982285	-98.071098	-37.888729	0	0	0.58850112	0.8084964
-255.072937	-96.945793	-37.888729	0	0	0.58850112	0.8084964
-256.149353	-95.806870	-37.888729	0	0	0.58850112	0.8084964
-257.211395	-94.654510	-37.888729	0	0	0.58850112	0.8084964
-258.258850	-93.488899	-37.888729	0	0	0.58850112	0.8084964
-259.291595	-92.310219	-37.888729	0	0	0.58850112	0.8084964
-260.309448	-91.118652	-37.888729	0	0	0.58850112	0.8084964
-261.312225	-89.914391	-37.888729	0	0	0.50484609	0.86320938
-262.299805	-88.697624	-37.888729	0	0	0.50484609	0.86320938
-263.272003	-87.468536	-37.888729	0	0	0.50484609	0.86320938
-264.228699	-86.227333	-37.888729	0	0	0.50484609	0.86320938
-265.169708	-84.974205	-37.888729	0	0	0.50484609	0.86320938
-266.094910	-83.709351	-37.888729	0	0	0.50484609	0.86320938
-267.004150	-82.432976	-37.888729	0	0	0.50484609	0.86320938
-267.897247	-81.145264	-37.888729	0	0	0.50484609	0.86320938
-268.774109	-79.846436	-37.888729	0	0	0.50484609	0.86320938
-269.634583	-78.536705	-37.888729	0	0	0.50484609	0.86320938
-270.478546	-77.216255	-37.888729	0	0	0.50484609	0.86320938
-271.305817	-75.885300	-37.888729	0	0	0.50484609	0.86320938
-272.116333	-74.544060	-37.888729	0	0	0.50484609	0.86320938
-272.909912	-73.192741	-37.888729	0	0	0.50484609	0.86320938
-273.686432	-71.831551	-37.888729	0	0	0.50484609	0.86320938
-274.445801	-70.460716	-37.888729	0	0	0.50484609	0.86320938
-275.187897	-69.080444	-37.888729	0	0	0.50484609	0.86320938
-275.912567	-67.690956	-37.888729	0	0	0.50484609	0.86320938
-276.619751	-66.292473	-37.888729	0	0	0.50484609	0.86320938
-277.309265	-64.885216	-37.888729	0	0	0.50484609	0.86320938
-277.981079	-63.469402	-37.888729	0	0	0.50484609	0.86320938
-278.635010	-62.045261	-37.888729	0	0	0.50484609	0.86320938
-279.271027	-60.613014	-37.888729	0	0	0.50484609	0.86320938
-279.888977	-59.172886	-37.888729	0	0	0.50484609	0.86320938
-280.488800	-57.725105	-37.888729	0	0	0.50484609	0.86320938
-281.070374	-56.269905	-37.888729	0	0	0.50484609	0.86320938
-281.633606	-54.807510	-37.888729	0	0	0.50484609	0.86320938
-282.178436	-53.338154	-37.888729	0	0	0.50484609	0.86320938
-282.704742	-51.862068	-37.888729	0	0	0.50484609	0.86320938
-283.212463	-50.379482	-37.888729	0	0	0.50484609	0.86320938
-283.701508	-48.890636	-37.888729	0	0	0.50484609	0.86320938
-284.171814	-47.395760	-37.888729	0	0	0.50484609	0.86320938
-284.623291	-45.895092	-37.888729	0	0	0.50484609	0.86320938
-285.055878	-44.388874	-37.888729	0	0	0.41614682	0.90929743
-285.469513	-42.877335	-37.888729	0	0	0.41614682	0.90929743
-285.864105	-41.360718	-37.888729	0	0	0.41614682	0.90929743
-286.239624	-39.839260	-37.888729	0	0	0.41614682	0.90929743
-286.595978	-38.313210	-37.888729	0	0	0.41614682	0.90929743
-286.933136	-36.782795	-37.888729	0	0	0.41614682	0.90929743
-287.251038	-35.248264	-37.888729	0	0	0.41614682	0.90929743
-287.549622	-33.709862	-37.888729	0	0	0.41614682	0.90929743
-287.828857	-32.167831	-37.888729	0	0	0.41614682	0.90929743
-288.088715	-30.622414	-37.888729	0	0	0.41614682	0.90929743
-288.329102	-29.073851	-37.888729	0	0	0.41614682	0.90929743
-288.550018	-27.522392	-37.888729	0	0	0.41614682	0.90929743
-288.751434	-25.968275	-37.888729	0	0	0.41614682	0.90929743
-288.933289	-24.411753	-37.888729	0	0	0.41614682	0.90929743
-289.095581	-22.853067	-37.888729	0	0	0.41614682	0.90929743
-289.238251	-21.292467	-37.888729	0	0	0.41614682	0.90929743
-289.361328	-19.730196	-37.888729	0	0	0.41614682	0.90929743
-289.464752	-18.166502	-37.888729	0	0	0.41614682	0.90929743
-289.548523	-16.601631	-37.888729	0	0	0.41614682	0.90929743
-289.612610	-15.035831	-37.888729	0	0	0.41614682	0.90929743
-289.657043	-13.469352	-37.888729	0	0	0.41614682	0.90929743
-289.681763	-11.902434	-37.888729	0	0	0.41614682	0.90929743
-289.686798	-10.335333	-37.888729	0	0	0.41614682	0.90929743
-289.672150	-8.768290	-37.888729	0	0	0.41614682	0.90929743
-289.637787	-7.201554	-37.888729	0	0	0.41614682	0.90929743
-289.583771	-5.635376	-37.888729	0	0	0.41614682	0.90929743
-289.510040	-4.070000	-37.888729	0	0	0.41614682	0.90929743
-289.416687	-2.505674	-37.888729	0	0	0.41614682	0.90929743
-289.415497	-2.487816	-37.888729	0	0	0.41614682	0.90929743
-289.433044	-2.302232	-37.622505	0	0	0.41614682	0.90929743
-289.476654	-1.794371	-36.894543	0	0	0.41614682	0.90929743
-289.513916	-1.285524	-36.165936	0	0	0.41614682	0.90929743
-289.544830	-0.775765	-35.436699	0	0	0.41614682	0.90929743
-289.569366	-0.265176	-34.706871	0	0	0.41614682	0.90929743
-289.587494	0.246160	-33.976486	0	0	0.41614682	0.90929743
-289.599243	0.758169	-33.245560	0	0	0.41614682	0.90929743
-289.604584	1.270766	-32.514130	0	0	0.41614682	0.90929743
-289.603485	1.783872	-31.782221	0	0	0.41614682	0.90929743
-289.595978	2.297408	-31.049860	0	0	0.41614682	0.90929743
-289.582031	2.811290	-30.317083	0	0	0.41614682	0.90929743
-289.561646	3.325439	-29.583918	0	0	0.41614682	0.90929743
-289.534790	3.839774	-28.850388	0	0	0.41614682	0.90929743
-289.501495	4.354214	-28.116526	0	0	0.41614682	0.90929743
-289.461731	4.868677	-27.382360	0	0	0.41614682	0.90929743
-289.415497	5.383084	-26.647919	0	0	0.41614682	0.90929743
-289.362823	5.897352	-25.913233	0	0	0.41614682	0.90929743
-289.303650	6.411400	-25.178328	0	0	0.41614682	0.90929743
-289.238037	6.925146	-24.443237	0	0	0.41614682	0.90929743
-289.165955	7.438510	-23.707987	0	0	0.41614682	0.90929743
-289.087433	7.951411	-22.972607	0	0	0.41614682	0.90929743
-289.002441	8.463767	-22.237125	0	0	0.41614682	0.90929743
-288.910980	8.975498	-21.501572	0	0	0.41614682	0.90929743
-288.813080	9.486520	-20.765978	0	0	0.41614682	0.90929743
-288.708771	9.996755	-20.030369	0	0	0.41614682	0.90929743
-288.597992	10.506119	-19.294775	0	0	0.41614682	0.90929743
-288.480804	11.014534	-18.559225	0	0	0.41614682	0.90929743
-288.357178	11.521916	-17.823751	0	0	0.41614682	0.90929743
-288.227173	12.028187	-17.088379	0	0	0.32328956	0.94630009
-288.090759	12.533265	-16.353134	0	0	0.32328956	0.94630009
-287.947968	13.037071	-15.618052	0	0	0.32328956	0.94630009
-287.798798	13.539523	-14.883161	0	0	0.32328956	0.94630009
-287.643280	14.040540	-14.148488	0	0	0.32328956	0.94630009
-287.481445	14.540043	-13.414063	0	0	0.32328956	0.94630009
-287.313263	15.037952	-12.679916	0	0	0.32328956	0.94630009
-287.138794	15.534187	-11.946073	0	0	0.32328956	0.94630009
-286.837189	16.939100	-11.855642	0	0	0.32328956	0.94630009
-286.500183	18.468025	-11.855643	0	0	0.32328956	0.94630009
-286.143982	19.992598	-11.855645	0	0	0.32328956	0.94630009
-285.768646	21.512573	-11.855646	0	0	0.32328956	0.94630009
-285.374237	23.027712	-11.855644	0	0	0.32328956	0.94630009
-284.960815	24.537771	-11.855643	0	0	0.32328956	0.94630009
-284.528473	26.042521	-11.855647	0	0	0.32328956	0.94630009
-284.077240	27.541714	-11.855644	0	0	0.32328956	0.94630009
-283.607208	29.035124	-11.855649	0	0	0.32328956	0.94630009
-283.118439	30.522505	-11.855646	0	0	0.32328956	0.94630009
-282.611023	32.003628	-11.855643	0	0	0.32328956	0.94630009
-282.085052	33.478256	-11.855645	0	0	0.32328956	0.94630009
-281.540558	34.946163	-11.855645	0	0	0.32328956	0.94630009
-280.977692	36.407108	-11.855645	0	0	0.32328956	0.94630009
-280.396484	37.860870	-11.855646	0	0	0.32328956	0.94630009
-279.797089	39.307205	-11.855642	0	0	0.32328956	0.94630009
-279.179535	40.745903	-11.855645	0	0	0.32328956	0.94630009
-278.543976	42.176720	-11.855643	0	0	0.32328956	0.94630009
-277.890472	43.599442	-11.855645	0	0	0.32328956	0.94630009
-277.219147	45.013840	-11.855646	0	0	0.32328956	0.94630009
-276.530090	46.419689	-11.855648	0	0	0.32328956	0.94630009
-275.823425	47.816765	-11.855646	0	0	0.32328956	0.94630009
-275.099274	49.204853	-11.855642	0	0	0.32328956	0.94630009
-274.357727	50.583733	-11.855643	0	0	0.32328956	0.94630009
-273.598938	51.953186	-11.855642	0	0	0.32328956	0.94630009
-272.822968	53.312996	-11.855643	0	0	0.32328956	0.94630009
-272.029968	54.662945	-11.855645	0	0	0.32328956	0.94630009
-271.220093	56.002827	-11.855648	0	0	0.32328956	0.94630009
-270.393433	57.332417	-11.855638	0	0	0.32328956	0.94630009
-269.550110	58.651527	-11.855646	0	0	0.32328956	0.94630009
-268.690308	59.959930	-11.855643	0	0	0.22720209	0.97384763
-267.814117	61.257420	-11.855641	0	0	0.22720209	0.97384763
-266.921692	62.543812	-11.855647	0	0	0.22720209	0.97384763
-266.013184	63.818874	-11.855646	0	0	0.22720209	0.97384763
-265.088715	65.082420	-11.855642	0	0	0.22720209	0.97384763
-264.148438	66.334251	-11.855646	0	0	0.22720209	0.97384763
-263.192505	67.574173	-11.855644	0	0	0.22720209	0.97384763
-262.221069	68.801979	-11.855640	0	0	0.22720209	0.97384763
-261.234283	70.017487	-11.855643	0	0	0.22720209	0.97384763
-260.232330	71.220490	-11.855645	0	0	0.22720209	0.97384763
-259.215302	72.410812	-11.855646	0	0	0.22720209	0.97384763
-258.183411	73.588264	-11.855647	0	0	0.22720209	0.97384763
-257.136780	74.752655	-11.855645	0	0	0.22720209	0.97384763
-256.075623	75.903793	-11.855647	0	0	0.22720209	0.97384763
-255.000076	77.041512	-11.855640	0	0	0.22720209	0.97384763
-253.910324	78.165634	-11.855643	0	0	0.22720209	0.97384763
-252.806534	79.275955	-11.855645	0	0	0.22720209	0.97384763
-251.688873	80.372337	-11.855645	0	0	0.22720209	0.97384763
-250.557526	81.454575	-11.855646	0	0	0.22720209	0.97384763
-249.412674	82.522514	-11.855644	0	0	0.22720209	0.97384763
-248.254486	83.575989	-11.855641	0	0	0.22720209	0.97384763
-247.083145	84.614822	-11.855642	0	0	0.22720209	0.97384763
-245.898865	85.638847	-11.855641	0	0	0.22720209	0.97384763
-244.701782	86.647919	-11.855640	0	0	0.22720209	0.97384763
-243.492126	87.641869	-11.855651	0	0	0.22720209	0.97384763
-242.270081	88.620537	-11.855651	0	0	0.22720209	0.97384763
-241.035828	89.583771	-11.855648	0	0	0.22720209	0.97384763
-239.789566	90.531418	-11.855639	0	0	0.22720209	0.97384763
-238.531509	91.463333	-11.855649	0	0	0.22720209	0.97384763
-237.261826	92.379364	-11.855648	0	0	0.22720209	0.97384763
-235.980728	93.279366	-11.855641	0	0	0.22720209	0.97384763
-234.688431	94.163200	-11.855643	0	0	0.22720209	0.97384763
-233.385132	95.030724	-11.855646	0	0	0.1288445	0.99166481
-232.071030	95.881805	-11.855647	0	0	0.1288445	0.99166481
-230.746338	96.716309	-11.855644	0	0	0.1288445	0.99166481
-229.411270	97.534096	-11.855650	0	0	0.1288445	0.99166481
-228.066025	98.335030	-11.855638	0	0	0.1288445	0.99166481
-226.710815	99.119019	-11.855650	0	0	0.1288445	0.99166481
-225.345871	99.885902	-11.855643	0	0	0.1288445	0.99166481
-223.971405	100.635574	-11.855643	0	0	0.1288445	0.99166481
-222.587616	101.367920	-11.855643	0	0	0.1288445	0.99166481
-221.194733	102.082817	-11.855641	0	0	0.1288445	0.99166481
-219.792969	102.780159	-11.855649	0	0	0.1288445	0.99166481
-218.382568	103.459824	-11.855639	0	0	0.1288445	0.99166481
-216.963730	104.121719	-11.855649	0	0	0.1288445	0.99166481
-215.536697	104.765724	-11.855643	0	0	0.1288445	0.99166481
-214.101669	105.391754	-11.855639	0	0	0.1288445	0.99166481
-212.658905	105.999695	-11.855641	0	0	0.1288445	0.99166481
-211.208588	106.589462	-11.855653	0	0	0.1288445	0.99166481
-209.750992	107.160965	-11.855654	0	0	0.1288445	0.99166481
-208.286331	107.714096	-11.855645	0	0	0.1288445	0.99166481
-206.814850	108.248779	-11.855639	0	0	0.1288445	0.99166481
-205.336731	108.764931	-11.855645	0	0	0.1288445	0.99166481
-203.852264	109.262466	-11.855641	0	0	0.1288445	0.99166481
-202.361664	109.741318	-11.855648	0	0	0.1288445	0.99166481
-200.865143	110.201393	-11.855646	0	0	0.1288445	0.99166481
-199.362991	110.642624	-11.855647	0	0	0.1288445	0.99166481
-197.855392	111.064949	-11.855643	0	0	0.1288445	0.99166481
-196.342621	111.468292	-11.855643	0	0	0.1288445	0.99166481
-194.824890	111.852592	-11.855641	0	0	0.1288445	0.99166481
-193.302429	112.217804	-11.855649	0	0	0.1288445	0.99166481
-191.775543	112.563843	-11.855646	0	0	0.1288445	0.99166481
-190.244385	112.890671	-11.855649	0	0	0.1288445	0.99166481
-188.709274	113.198227	-11.855645	0	0	0.1288445	0.99166481
-187.170410	113.486473	-11.855639	0	0	0.029199523	0.9995736
-185.628036	113.755356	-11.855642	0	0	0.029199523	0.9995736
-184.082413	114.004845	-11.855650	0	0	0.029199523	0.9995736
-182.533768	114.234886	-11.855645	0	0	0.029199523	0.9995736
-180.982376	114.445450	-11.855646	0	0	0.029199523	0.9995736
-179.428436	114.636497	-11.855643	0	0	0.029199523	0.9995736
-177.872238	114.808006	-11.855639	0	0	0.029199523	0.9995736
-176.313995	114.959953	-11.855644	0	0	0.029199523	0.9995736
-174.753967	115.092300	-11.855647	0	0	0.029199523	0.9995736
-173.192413	115.205032	-11.855645	0	0	0.029199523	0.9995736
-171.629547	115.298134	-11.855645	0	0	0.029199523	0.9995736
-170.065628	115.371590	-11.855649	0	0	0.029199523	0.9995736
-168.500931	115.425392	-11.855644	0	0	0.029199523	0.9995736
-166.935669	115.459526	-11.855647	0	0	0.029199523	0.9995736
-165.370117	115.473984	-11.855644	0	0	0.029199523	0.9995736
-163.804504	115.468765	-11.855642	0	0	0.029199523	0.9995736
-162.239059	115.443878	-11.855641	0	0	0.029199523	0.9995736
-160.674072	115.399323	-11.855643	0	0	0.029199523	0.9995736
-159.109756	115.335106	-11.855639	0	0	0.029199523	0.9995736
-157.546371	115.251236	-11.855642	0	0	0.029199523	0.9995736
-155.984161	115.147720	-11.855646	0	0	0.029199523	0.9995736
-154.423386	115.024590	-11.855643	0	0	0.029199523	0.9995736
-152.864288	114.881859	-11.855643	0	0	0.029199523	0.9995736
-151.307083	114.719536	-11.855640	0	0	0.029199523	0.9995736
-149.752060	114.537666	-11.855639	0	0	0.029199523	0.9995736
-148.199432	114.336273	-11.855647	0	0	0.029199523	0.9995736
-146.649460	114.115379	-11.855645	0	0	0.029199523	0.9995736
-145.102386	113.875031	-11.855649	0	0	0.029199523	0.9995736
-143.558472	113.615257	-11.855643	0	0	0.029199523	0.9995736
-142.017929	113.336105	-11.855645	0	0	0.029199523	0.9995736
-140.481018	113.037613	-11.855643	0	0	0.029199523	0.9995736
-138.947968	112.719833	-11.855652	0	0	0.029199523	0.9995736
-137.419037	112.382812	-11.855643	0	0	-0.070737201	0.99749499
-135.894470	112.026611	-11.855651	0	0	-0.070737201	0.99749499
-134.374496	111.651276	-11.855644	0	0	-0.070737201	0.99749499
-132.859360	111.256874	-11.855641	0	0	-0.070737201	0.99749499
-131.349304	110.843460	-11.855642	0	0	-0.070737201	0.99749499
-129.844543	110.411102	-11.855647	0	0	-0.070737201	0.99749499
-128.345352	109.959877	-11.855645	0	0	-0.070737201	0.99749499
-126.851952	109.489845	-11.855642	0	0	-0.070737201	0.99749499
-125.364571	109.001083	-11.855639	0	0	-0.070737201	0.99749499
-123.883438	108.493668	-11.855647	0	0	-0.070737201	0.99749499
-122.408821	107.967682	-11.855641	0	0	-0.070737201	0.99749499
-120.940910	107.423203	-11.855643	0	0	-0.070737201	0.99749499
-119.479965	106.860329	-11.855645	0	0	-0.070737201	0.99749499
-118.026199	106.279137	-11.855641	0	0	-0.070737201	0.99749499
-116.579865	105.679726	-11.855647	0	0	-0.070737201	0.99749499
-115.141174	105.062180	-11.855639	0	0	-0.070737201	0.99749499
-113.710342	104.426613	-11.855644	0	0	-0.070737201	0.99749499
-112.287628	103.773109	-11.855640	0	0	-0.070737201	0.99749499
-110.873230	103.101784	-11.855647	0	0	-0.070737201	0.99749499
-109.467384	102.412735	-11.855645	0	0	-0.070737201	0.99749499
-108.070305	101.706078	-11.855648	0	0	-0.070737201	0.99749499
-106.682213	100.981918	-11.855643	0	0	-0.070737201	0.99749499
-105.303337	100.240372	-11.855648	0	0	-0.070737201	0.99749499
-103.933884	99.481560	-11.855644	0	0	-0.070737201	0.99749499
-102.574074	98.705597	-11.855639	0	0	-0.070737201	0.99749499
-101.224121	97.912613	-11.855650	0	0	-0.070737201	0.99749499
-99.884247	97.102722	-11.855643	0	0	-0.070737201	0.99749499
-98.554649	96.276062	-11.855640	0	0	-0.070737201	0.99749499
-97.235550	95.432762	-11.855640	0	0	-0.070737201	0.99749499
-95.927139	94.572945	-11.855649	0	0	-0.070737201	0.99749499
-94.629646	93.696754	-11.855645	0	0	-0.070737201	0.99749499
-93.343269	92.804337	-11.855644	0	0	-0.070737201	0.99749499
-92.068199	91.895821	-11.855644	0	0	-0.070737201	0.99749499
-90.804649	90.971352	-11.855644	0	0	-0.16996714	0.98544973
-89.552818	90.031082	-11.855644	0	0	-0.16996714	0.98544973
-88.312904	89.075157	-11.855643	0	0	-0.16996714	0.98544973
-87.085083	88.103714	-11.855644	0	0	-0.16996714	0.98544973
-85.869591	87.116936	-11.855645	0	0	-0.16996714	0.98544973
-84.666512	86.114983	-11.855697	0	0	-0.16996714	0.98544973
-83.465080	85.102684	-11.864151	0	0	-0.16996714	0.98544973
-82.276443	84.075386	-11.872619	0	0	-0.16996714	0.98544973
-81.100792	83.033234	-11.881095	0	0	-0.16996714	0.98544973
-79.938309	81.976395	-11.889594	0	0	-0.16996714	0.98544973
-78.789185	80.905037	-11.898101	0	0	-0.16996714	0.98544973
-77.653595	79.819336	-11.906612	0	0	-0.16996714	0.98544973
-76.531723	78.719460	-11.915139	0	0	-0.16996714	0.98544973
-75.423744	77.605568	-11.923673	0	0	-0.16996714	0.98544973
-74.329834	76.477852	-11.932216	0	0	-0.16996714	0.98544973
-73.250168	75.336494	-11.940775	0	0	-0.16996714	0.98544973
-72.184914	74.181656	-11.949333	0	0	-0.16996714	0.98544973
-71.134239	73.013535	-11.957902	0	0	-0.16996714	0.98544973
-70.098297	71.832298	-11.966482	0	0	-0.16996714	0.98544973
-69.077271	70.638153	-11.975071	0	0	-0.16996714	0.98544973
-68.071312	69.431267	-11.983667	0	0	-0.16996714	0.98544973
-67.080582	68.211845	-11.992272	0	0	-0.16996714	0.98544973
-66.105240	66.980080	-12.000882	0	0	-0.16996714	0.98544973
-65.145439	65.736153	-12.009501	0	0	-0.16996714	0.98544973
-64.201324	64.480278	-12.018123	0	0	-0.16996714	0.98544973
-63.273045	63.212639	-12.026753	0	0	-0.16996714	0.98544973
-62.360752	61.933437	-12.035386	0	0	-0.16996714	0.98544973
-61.464592	60.642879	-12.044030	0	0	-0.16996714	0.98544973
-60.584702	59.341171	-12.052672	0	0	-0.16996714	0.98544973
-59.721222	58.028511	-12.061319	0	0	-0.16996714	0.98544973
-58.874287	56.705105	-12.069974	0	0	-0.16996714	0.98544973
-58.044033	55.371166	-12.078635	0	0	-0.16996714	0.98544973
-58.668472	59.934299	-12.087295	0	0	-0.26749883	0.96355818
-61.029293	72.081383	-12.095959	0	0	-0.26749883	0.96355818
-64.269363	88.741920	-12.104631	0	0	-0.26749883	0.96355818
-68.991074	113.008179	-12.113297	0	0	-0.26749883	0.96355818
-76.509850	151.632660	-12.121970	0	0	-0.26749883	0.96355818
-90.352531	222.719696	-12.130647	0	0	-0.26749883	0.96355818
-124.275604	396.885559	-12.139318	0	0	-0.26749883	0.96355818
87.3908	92.9789	-43.3757	0.0	0.0	0.999999999999	1.32679489668e-06	
