382.892914	-142.818115	-203.621841	0	0	0	1
233.097015	-93.762329	-93.264763	0	0	0	1
178.770630	-75.966698	-53.248245	0	0	0	1
150.698975	-66.767776	-32.575867	0	0	0	1
150.687561	-67.375999	-32.719509	0	0	0	1
151.334900	-68.231071	-33.358360	0	0	0	1
151.973450	-69.094971	-33.996281	0	0	0	1
152.603104	-69.967598	-34.633232	0	0	0	1
153.223740	-70.848854	-35.269188	0	0	0	1
153.835251	-71.738640	-35.904121	0	0	0	1
154.437531	-72.636841	-36.538017	0	0	0	1
155.030457	-73.543365	-37.170841	0	0	0	1
155.613922	-74.458107	-37.802582	0	0	0	1
156.187820	-75.380951	-38.433189	0	0	0	1
156.752060	-76.311798	-39.062653	0	0	0	1
157.306503	-77.250534	-39.690971	0	0	0	1
157.851089	-78.197044	-40.318073	0	0	0	1
158.385681	-79.151222	-40.943970	0	0	0	1
158.910187	-80.112953	-41.568623	0	0	0	1
159.424500	-81.082123	-42.192005	0	0	0	1
159.928543	-82.058609	-42.814102	0	0	0.97095818	0.23924928
160.422211	-83.042297	-43.434872	0	0	0.97095818	0.23924928
160.905380	-84.033066	-44.054310	0	0	0.97095818	0.23924928
161.377991	-85.030800	-44.672382	0	0	0.97095818	0.23924928
161.839951	-86.035378	-45.289062	0	0	0.97095818	0.23924928
162.291153	-87.046677	-45.904327	0	0	0	1
162.731506	-88.064575	-46.518158	0	0	0	1
163.160919	-89.088936	-47.130527	0	0	0	1
163.579330	-90.119644	-47.741409	0	0	0	1
163.986618	-91.156570	-48.350777	0	0	0	1
164.382736	-92.199585	-48.958622	0	0	0	1
164.767563	-93.248558	-49.564896	0	0	0	1
165.141052	-94.303368	-50.169590	0	0	0	1
165.503113	-95.363869	-50.772678	0	0	0	1
165.853668	-96.429939	-51.374138	0	0	0	1
166.192627	-97.501442	-51.973949	0	0	0	1
166.519928	-98.578239	-52.572071	0	0	0	1
166.835510	-99.660210	-53.168503	0	0	0	1
167.139282	-100.747200	-53.763195	0	0	0	1
167.431183	-101.839081	-54.356155	0	0	0	1
167.711136	-102.935707	-54.947338	0	0	0	1
167.979095	-104.036942	-55.536720	0	0	0	1
168.234985	-105.142662	-56.124287	0	0	0	1
168.478729	-106.252701	-56.710018	0	0	0	1
168.710297	-107.366936	-57.293873	0	0	0	1
168.929596	-108.485222	-57.875847	0	0	0	1
169.136581	-109.607391	-58.455910	0	0	0	1
169.331207	-110.733337	-59.034050	0	0	0	1
169.513428	-111.862900	-59.610222	0	0	0	1
169.683151	-112.995918	-60.184414	0	0	0	1
169.840363	-114.132271	-60.756599	0	0	0	1
169.985001	-115.271797	-61.326778	0	0	0	1
170.117020	-116.414352	-61.894894	0	0	0.94222235	0.33498812
170.236374	-117.559799	-62.460949	0	0	0.94222235	0.33498812
170.343018	-118.707962	-63.024906	0	0	0.94222235	0.33498812
170.436905	-119.858711	-63.586754	0	0	0.94222235	0.33498812
170.518005	-121.011887	-64.146461	0	0	0.94222235	0.33498812
170.586273	-122.167358	-64.704018	0	0	0	1
170.641693	-123.324959	-65.259384	0	0	0	1
170.684189	-124.484535	-65.812561	0	0	0	1
170.713776	-125.645943	-66.363510	0	0	0	1
170.730392	-126.809029	-66.912201	0	0	0	1
170.734024	-127.973633	-67.458633	0	0	0	1
170.724625	-129.139618	-68.002785	0	0	0	1
170.702194	-130.306793	-68.544617	0	0	0	1
170.666687	-131.475067	-69.084122	0	0	0	1
170.618103	-132.644211	-69.621269	0	0	0	1
170.556412	-133.814148	-70.156044	0	0	0	1
170.481583	-134.984665	-70.688423	0	0	0	1
170.393631	-136.155624	-71.218384	0	0	0	1
170.292511	-137.326874	-71.745911	0	0	0	1
170.178238	-138.498245	-72.270973	0	0	0	1
170.050766	-139.669617	-72.793564	0	0	0	1
169.910126	-140.840790	-73.313652	0	0	0	1
169.756302	-142.011642	-73.831223	0	0	0	1
169.589264	-143.181992	-74.346252	0	0	0	1
169.409042	-144.351700	-74.858711	0	0	0	1
169.215622	-145.520599	-75.368599	0	0	0	1
169.009003	-146.688538	-75.875885	0	0	0	1
168.789185	-147.855362	-76.380554	0	0	0	1
168.556183	-149.020920	-76.882576	0	0	0	1
168.309998	-150.185043	-77.381943	0	0	0	1
168.050644	-151.347580	-77.878609	0	0	0	1
167.778122	-152.508377	-78.372597	0	0	0.90407214	0.42737988
167.492462	-153.667267	-78.863861	0	0	0.90407214	0.42737988
167.193649	-154.824097	-79.352379	0	0	0.90407214	0.42737988
166.881744	-155.978729	-79.838142	0	0	0.90407214	0.42737988
166.556732	-157.130981	-80.321129	0	0	0.90407214	0.42737988
166.218628	-158.280716	-80.801315	0	0	0.90407214	0.42737988
165.867477	-159.427780	-81.278687	0	0	0	1
165.503296	-160.572006	-81.753227	0	0	0	1
165.126114	-161.713242	-82.224915	0	0	0	1
164.735947	-162.851318	-82.693726	0	0	0	1
164.332840	-163.986115	-83.159645	0	0	0	1
163.916809	-165.117447	-83.622658	0	0	0	1
163.487900	-166.245178	-84.082748	0	0	0	1
163.046143	-167.369156	-84.539886	0	0	0	1
162.591568	-168.489227	-84.994072	0	0	0	1
162.124237	-169.605209	-85.445267	0	0	0	1
161.644180	-170.716980	-85.893463	0	0	0	1
161.151428	-171.824402	-86.338646	0	0	0	1
160.646027	-172.927292	-86.780792	0	0	0	1
160.128052	-174.025497	-87.219887	0	0	0	1
159.760727	-175.357422	-87.243149	0	0	0	1
159.385803	-176.698135	-87.243149	0	0	0.90407214	0.42737988
158.994064	-178.034027	-87.243149	0	0	0.90407214	0.42737988
158.585556	-179.364883	-87.243149	0	0	0.90407214	0.42737988
158.160385	-180.690506	-87.243149	0	0	0.90407214	0.42737988
157.718567	-182.010666	-87.243149	0	0	0.90407214	0.42737988
157.260193	-183.325195	-87.243149	0	0	0.90407214	0.42737988
156.785355	-184.633850	-87.243149	0	0	0.90407214	0.42737988
156.294098	-185.936432	-87.243149	0	0	0.90407214	0.42737988
155.786514	-187.232742	-87.243149	0	0	0.90407214	0.42737988
155.262680	-188.522568	-87.243149	0	0	0.90407214	0.42737988
154.722672	-189.805710	-87.243149	0	0	0.90407214	0.42737988
154.166595	-191.081955	-87.243149	0	0	0.90407214	0.42737988
153.594513	-192.351135	-87.243149	0	0	0.90407214	0.42737988
153.006546	-193.613007	-87.243149	0	0	0.90407214	0.42737988
152.402756	-194.867401	-87.243149	0	0	0.90407214	0.42737988
151.783249	-196.114105	-87.243149	0	0	0.90407214	0.42737988
151.148117	-197.352921	-87.243149	0	0	0.94222235	0.33498812
150.497482	-198.583664	-87.243149	0	0	0.94222235	0.33498812
149.831436	-199.806137	-87.243149	0	0	0.94222235	0.33498812
149.150070	-201.020126	-87.243149	0	0	0.94222235	0.33498812
148.453506	-202.225479	-87.243149	0	0	0.94222235	0.33498812
147.741852	-203.421982	-87.243149	0	0	0.94222235	0.33498812
147.015213	-204.609436	-87.243149	0	0	0.94222235	0.33498812
146.273712	-205.787674	-87.243149	0	0	0.94222235	0.33498812
145.517471	-206.956482	-87.243149	0	0	0.94222235	0.33498812
144.746597	-208.115723	-87.243149	0	0	0.94222235	0.33498812
143.961227	-209.265167	-87.243149	0	0	0.94222235	0.33498812
143.161469	-210.404663	-87.243149	0	0	0.94222235	0.33498812
142.347443	-211.534012	-87.243149	0	0	0.94222235	0.33498812
141.519302	-212.653046	-87.243149	0	0	0.94222235	0.33498812
140.677170	-213.761581	-87.243149	0	0	0.94222235	0.33498812
139.821167	-214.859436	-87.243149	0	0	0.94222235	0.33498812
138.951431	-215.946472	-87.243149	0	0	0.94222235	0.33498812
138.068100	-217.022476	-87.243149	0	0	0.94222235	0.33498812
137.171326	-218.087296	-87.243149	0	0	0.94222235	0.33498812
136.261246	-219.140778	-87.243149	0	0	0.94222235	0.33498812
135.337997	-220.182724	-87.243149	0	0	0.94222235	0.33498812
134.401733	-221.212997	-87.243149	0	0	0.94222235	0.33498812
133.452576	-222.231415	-87.243149	0	0	0.94222235	0.33498812
132.490723	-223.237823	-87.243149	0	0	0.94222235	0.33498812
131.516281	-224.232086	-87.243149	0	0	0.94222235	0.33498812
130.529419	-225.214005	-87.243149	0	0	0.94222235	0.33498812
129.530319	-226.183441	-87.243149	0	0	0.94222235	0.33498812
128.519104	-227.140259	-87.243149	0	0	0.94222235	0.33498812
127.495934	-228.084290	-87.243149	0	0	0.94222235	0.33498812
126.460991	-229.015396	-87.243149	0	0	0.94222235	0.33498812
125.414436	-229.933411	-87.243149	0	0	0.94222235	0.33498812
124.356415	-230.838211	-87.243149	0	0	0.94222235	0.33498812
123.287117	-231.729645	-87.243149	0	0	0.94222235	0.33498812
122.206696	-232.607574	-87.243149	0	0	0.94222235	0.33498812
121.115326	-233.471848	-87.243149	0	0	0.90407214	0.42737988
120.013191	-234.322342	-87.243149	0	0	0.90407214	0.42737988
118.900452	-235.158936	-87.243149	0	0	0.90407214	0.42737988
117.777283	-235.981461	-87.243149	0	0	0.90407214	0.42737988
116.643875	-236.789810	-87.243149	0	0	0.90407214	0.42737988
115.500397	-237.583862	-87.243149	0	0	0.90407214	0.42737988
114.347031	-238.363480	-87.243149	0	0	0.90407214	0.42737988
113.183952	-239.128540	-87.243149	0	0	0.90407214	0.42737988
112.011368	-239.878922	-87.243149	0	0	0.90407214	0.42737988
110.829430	-240.614502	-87.243149	0	0	0.90407214	0.42737988
109.638351	-241.335190	-87.243149	0	0	0.90407214	0.42737988
108.438301	-242.040848	-87.243149	0	0	0.90407214	0.42737988
107.229485	-242.731369	-87.243149	0	0	0.90407214	0.42737988
106.012093	-243.406631	-87.243149	0	0	0.90407214	0.42737988
104.786301	-244.066559	-87.243149	0	0	0.90407214	0.42737988
103.552315	-244.711029	-87.243149	0	0	0.90407214	0.42737988
102.310333	-245.339935	-87.243149	0	0	0.90407214	0.42737988
101.060539	-245.953201	-87.243149	0	0	0.90407214	0.42737988
99.803146	-246.550690	-87.243149	0	0	0.90407214	0.42737988
98.538338	-247.132355	-87.243149	0	0	0.90407214	0.42737988
97.266327	-247.698059	-87.243149	0	0	0.90407214	0.42737988
95.987305	-248.247757	-87.243149	0	0	0.90407214	0.42737988
94.701469	-248.781326	-87.243149	0	0	0.90407214	0.42737988
93.409035	-249.298691	-87.243149	0	0	0.90407214	0.42737988
92.110207	-249.799774	-87.243149	0	0	0.90407214	0.42737988
90.805183	-250.284500	-87.243149	0	0	0.90407214	0.42737988
89.494164	-250.752792	-87.243149	0	0	0.90407214	0.42737988
88.177368	-251.204575	-87.243149	0	0	0.90407214	0.42737988
86.855003	-251.639771	-87.243149	0	0	0.90407214	0.42737988
85.527267	-252.058319	-87.243149	0	0	0.90407214	0.42737988
84.194382	-252.460144	-87.243149	0	0	0.90407214	0.42737988
82.856544	-252.845200	-87.243149	0	0	0.90407214	0.42737988
81.513985	-253.213394	-87.243149	0	0	0.90407214	0.42737988
80.166893	-253.564713	-87.243149	0	0	0.90407214	0.42737988
78.815498	-253.899063	-87.243149	0	0	0.90407214	0.42737988
77.460014	-254.216400	-87.243149	0	0	0.90407214	0.42737988
76.100647	-254.516678	-87.243149	0	0	0.90407214	0.42737988
74.737610	-254.799866	-87.243149	0	0	0.90407214	0.42737988
73.371124	-255.065887	-87.243149	0	0	0.90407214	0.42737988
72.001404	-255.314728	-87.243149	0	0	0.90407214	0.42737988
70.628662	-255.546326	-87.243149	0	0	0.90407214	0.42737988
69.253120	-255.760666	-87.243149	0	0	0.90407214	0.42737988
67.874992	-255.957703	-87.243149	0	0	0.90407214	0.42737988
66.494499	-256.137390	-87.243149	0	0	0.90407214	0.42737988
65.111862	-256.299744	-87.243149	0	0	0.90407214	0.42737988
63.727280	-256.444702	-87.243149	0	0	0.90407214	0.42737988
62.341000	-256.572235	-87.243149	0	0	0.90407214	0.42737988
60.953217	-256.682343	-87.243149	0	0	0.90407214	0.42737988
59.564163	-256.775024	-87.243149	0	0	0.85688874	0.51550139
58.174061	-256.850220	-87.243149	0	0	0.85688874	0.51550139
56.783119	-256.907928	-87.243149	0	0	0.85688874	0.51550139
55.391556	-256.948181	-87.243149	0	0	0.85688874	0.51550139
53.999596	-256.970947	-87.243149	0	0	0.85688874	0.51550139
52.607475	-256.976196	-87.243149	0	0	0.85688874	0.51550139
51.215385	-256.963959	-87.243149	0	0	0.85688874	0.51550139
49.823563	-256.934235	-87.243149	0	0	0.85688874	0.51550139
48.432220	-256.887024	-87.243149	0	0	0.85688874	0.51550139
47.041588	-256.822357	-87.243149	0	0	0.85688874	0.51550139
45.651878	-256.740173	-87.243149	0	0	0.85688874	0.51550139
44.263302	-256.640564	-87.243149	0	0	0.85688874	0.51550139
42.876087	-256.523499	-87.243149	0	0	0.85688874	0.51550139
41.490467	-256.389038	-87.243149	0	0	0.85688874	0.51550139
41.349792	-256.374390	-87.243149	0	0	0.85688874	0.51550139
41.285702	-256.436890	-87.115303	0	0	0.85688874	0.51550139
41.071545	-256.642334	-86.691467	0	0	0.85688874	0.51550139
40.853233	-256.846588	-86.264534	0	0	0.85688874	0.51550139
40.630779	-257.049591	-85.834503	0	0	0.85688874	0.51550139
40.404186	-257.251251	-85.401405	0	0	0.85688874	0.51550139
40.173462	-257.451538	-84.965256	0	0	0.85688874	0.51550139
39.938610	-257.650391	-84.526062	0	0	0.85688874	0.51550139
39.699642	-257.847717	-84.083839	0	0	0.85688874	0.51550139
39.456573	-258.043488	-83.638626	0	0	0.85688874	0.51550139
39.209415	-258.237610	-83.190422	0	0	0.85688874	0.51550139
38.958172	-258.430054	-82.739250	0	0	0.85688874	0.51550139
38.702862	-258.620728	-82.285126	0	0	0.85688874	0.51550139
38.443497	-258.809601	-81.828072	0	0	0.85688874	0.51550139
38.180088	-258.996582	-81.368095	0	0	0.85688874	0.51550139
37.912659	-259.181641	-80.905235	0	0	0.85688874	0.51550139
37.641220	-259.364685	-80.439491	0	0	0.85688874	0.51550139
37.365784	-259.545685	-79.970886	0	0	0.85688874	0.51550139
37.086380	-259.724548	-79.499443	0	0	0.85688874	0.51550139
36.803013	-259.901245	-79.025169	0	0	0.85688874	0.51550139
36.515713	-260.075684	-78.548103	0	0	0.85688874	0.51550139
36.224495	-260.247803	-78.068245	0	0	0.85688874	0.51550139
35.929379	-260.417572	-77.585625	0	0	0.85688874	0.51550139
35.630390	-260.584930	-77.100250	0	0	0.85688874	0.51550139
35.327549	-260.749817	-76.612152	0	0	0.85688874	0.51550139
35.020882	-260.912140	-76.121346	0	0	0.85688874	0.51550139
34.710407	-261.071869	-75.627853	0	0	0.85688874	0.51550139
34.396160	-261.228912	-75.131691	0	0	0.85688874	0.51550139
34.078156	-261.383270	-74.632874	0	0	0.85688874	0.51550139
33.756424	-261.534851	-74.131424	0	0	0.85688874	0.51550139
33.431000	-261.683563	-73.627373	0	0	0.85688874	0.51550139
33.101902	-261.829407	-73.120728	0	0	0.85688874	0.51550139
32.769165	-261.972290	-72.611511	0	0	0.85688874	0.51550139
32.432812	-262.112183	-72.099739	0	0	0.85688874	0.51550139
32.092880	-262.248993	-71.585442	0	0	0.85688874	0.51550139
31.749401	-262.382690	-71.068634	0	0	0.85688874	0.51550139
31.402401	-262.513214	-70.549332	0	0	0.85688874	0.51550139
31.051922	-262.640503	-70.027565	0	0	0.85688874	0.51550139
30.697987	-262.764526	-69.503342	0	0	0.85688874	0.51550139
30.340641	-262.885193	-68.976707	0	0	0.85688874	0.51550139
29.979916	-263.002441	-68.447655	0	0	0.85688874	0.51550139
29.615841	-263.116272	-67.916214	0	0	0.85688874	0.51550139
29.248461	-263.226562	-67.382408	0	0	0.85688874	0.51550139
28.877811	-263.333313	-66.846260	0	0	0.85688874	0.51550139
28.503929	-263.436462	-66.307793	0	0	0.85688874	0.51550139
28.126856	-263.535950	-65.767021	0	0	0.85688874	0.51550139
27.746632	-263.631714	-65.223969	0	0	0.85688874	0.51550139
27.363289	-263.723694	-64.678658	0	0	0.85688874	0.51550139
26.976877	-263.811890	-64.131104	0	0	0.85688874	0.51550139
26.587439	-263.896179	-63.581341	0	0	0.85688874	0.51550139
26.195019	-263.976562	-63.029388	0	0	0.85688874	0.51550139
25.799644	-264.053009	-62.475254	0	0	0.85688874	0.51550139
25.401377	-264.125397	-61.918972	0	0	0.85688874	0.51550139
25.000254	-264.193756	-61.360558	0	0	0.85688874	0.51550139
24.596321	-264.257965	-60.800041	0	0	0.85688874	0.51550139
24.189625	-264.318054	-60.237442	0	0	0.85688874	0.51550139
23.780214	-264.373901	-59.672779	0	0	0.85688874	0.51550139
23.368135	-264.425507	-59.106079	0	0	0.85688874	0.51550139
22.953434	-264.472809	-58.537354	0	0	0.85688874	0.51550139
22.536161	-264.515778	-57.966640	0	0	0.85688874	0.51550139
22.116365	-264.554352	-57.393951	0	0	0.85688874	0.51550139
21.694096	-264.588470	-56.819313	0	0	0.85688874	0.51550139
21.269407	-264.618134	-56.242752	0	0	0.85688874	0.51550139
20.842346	-264.643280	-55.664280	0	0	0.85688874	0.51550139
20.412964	-264.663879	-55.083927	0	0	0.85688874	0.51550139
19.981319	-264.679840	-54.501717	0	0	0.85688874	0.51550139
19.547461	-264.691162	-53.917671	0	0	0.85688874	0.51550139
19.111441	-264.697815	-53.331810	0	0	0.85688874	0.51550139
18.673317	-264.699738	-52.744167	0	0	0.85688874	0.51550139
18.233143	-264.696899	-52.154747	0	0	0.85688874	0.51550139
17.790974	-264.689240	-51.563595	0	0	0.85688874	0.51550139
17.346863	-264.676758	-50.970715	0	0	0.85688874	0.51550139
16.900873	-264.659393	-50.376148	0	0	0.85688874	0.51550139
16.453054	-264.637146	-49.779900	0	0	0.85688874	0.51550139
16.003469	-264.609924	-49.182003	0	0	0.85688874	0.51550139
15.552176	-264.577698	-48.582481	0	0	0.85688874	0.51550139
15.099226	-264.540466	-47.981358	0	0	0.85688874	0.51550139
14.644689	-264.498199	-47.378654	0	0	0.85688874	0.51550139
14.188619	-264.450836	-46.774399	0	0	0.85688874	0.51550139
13.731074	-264.398376	-46.168613	0	0	0.85688874	0.51550139
13.272120	-264.340759	-45.561317	0	0	0.85688874	0.51550139
12.811815	-264.277954	-44.952545	0	0	0.85688874	0.51550139
12.350222	-264.209930	-44.342316	0	0	0.85688874	0.51550139
11.887401	-264.136688	-43.730644	0	0	0.85688874	0.51550139
11.423412	-264.058167	-43.117561	0	0	0.85688874	0.51550139
10.958324	-263.974365	-42.503098	0	0	0.85688874	0.51550139
10.492198	-263.885254	-41.887264	0	0	0.85688874	0.51550139
10.025095	-263.790771	-41.270100	0	0	0.85688874	0.51550139
9.557084	-263.690948	-40.651619	0	0	0.85688874	0.51550139
9.088225	-263.585693	-40.031853	0	0	0.85688874	0.51550139
8.618586	-263.475037	-39.410824	0	0	0.85688874	0.51550139
8.148232	-263.358948	-38.788548	0	0	0.85688874	0.51550139
7.677224	-263.237396	-38.165062	0	0	0.85688874	0.51550139
7.205635	-263.110352	-37.540386	0	0	0.85688874	0.51550139
6.733527	-262.977783	-36.914539	0	0	0.85688874	0.51550139
6.260968	-262.839722	-36.287556	0	0	0.85688874	0.51550139
5.788024	-262.696106	-35.659451	0	0	0.85688874	0.51550139
5.314762	-262.546906	-35.030251	0	0	0.85688874	0.51550139
4.841255	-262.392151	-34.399994	0	0	0.85688874	0.51550139
4.367563	-262.231812	-33.768688	0	0	0.85688874	0.51550139
3.893758	-262.065826	-33.136368	0	0	0.85688874	0.51550139
3.419909	-261.894226	-32.503059	0	0	0.85688874	0.51550139
2.946084	-261.717010	-31.868776	0	0	0.85688874	0.51550139
2.472353	-261.534119	-31.233555	0	0	0.85688874	0.51550139
1.998783	-261.345581	-30.597410	0	0	0.85688874	0.51550139
1.525445	-261.151367	-29.960382	0	0	0.85688874	0.51550139
1.052410	-260.951447	-29.322483	0	0	0.85688874	0.51550139
0.579746	-260.745850	-28.683744	0	0	0.85688874	0.51550139
0.107523	-260.534546	-28.044188	0	0	0.85688874	0.51550139
-0.364188	-260.317535	-27.403837	0	0	0.85688874	0.51550139
-0.835317	-260.094788	-26.762724	0	0	0.85688874	0.51550139
-1.305792	-259.866333	-26.120874	0	0	0.85688874	0.51550139
-1.775545	-259.632141	-25.478304	0	0	0.85688874	0.51550139
-2.244503	-259.392212	-24.835043	0	0	0.85688874	0.51550139
-2.712595	-259.146545	-24.191120	0	0	0.85688874	0.51550139
-3.179748	-258.895172	-23.546558	0	0	0.85688874	0.51550139
-3.645896	-258.638031	-22.901375	0	0	0.85688874	0.51550139
-4.110962	-258.375153	-22.255617	0	0	0.85688874	0.51550139
-4.574877	-258.106537	-21.609285	0	0	0.85688874	0.51550139
-5.037569	-257.832184	-20.962421	0	0	0.85688874	0.51550139
-5.498970	-257.552063	-20.315046	0	0	0.85688874	0.51550139
-5.959002	-257.266235	-19.667181	0	0	0.85688874	0.51550139
-6.417596	-256.974670	-19.018860	0	0	0.85688874	0.51550139
-6.874681	-256.677399	-18.370104	0	0	0.85688874	0.51550139
-7.330184	-256.374390	-17.720938	0	0	0.85688874	0.51550139
-7.784034	-256.065674	-17.071388	0	0	0.85688874	0.51550139
-8.236160	-255.751236	-16.421476	0	0	0.85688874	0.51550139
-8.686490	-255.431122	-15.771233	0	0	0.85688874	0.51550139
-9.134950	-255.105301	-15.120689	0	0	0.85688874	0.51550139
-9.581469	-254.773804	-14.469857	0	0	0.85688874	0.51550139
-10.025977	-254.436646	-13.818772	0	0	0.85688874	0.51550139
-10.468401	-254.093842	-13.167463	0	0	0.85688874	0.51550139
-10.908670	-253.745377	-12.515940	0	0	0.85688874	0.51550139
-11.346712	-253.391296	-11.864251	0	0	0.85688874	0.51550139
-11.782460	-253.031586	-11.212399	0	0	0.85688874	0.51550139
-12.215834	-252.666290	-10.560428	0	0	0.85688874	0.51550139
-12.646770	-252.295410	-9.908350	0	0	0.85688874	0.51550139
-13.075193	-251.918961	-9.256199	0	0	0.85688874	0.51550139
-13.501035	-251.536972	-8.603994	0	0	0.85688874	0.51550139
-13.924224	-251.149460	-7.951770	0	0	0.85688874	0.51550139
-14.344688	-250.756424	-7.299550	0	0	0.85688874	0.51550139
-14.762361	-250.357925	-6.647355	0	0	0.85688874	0.51550139
-15.177166	-249.953949	-5.995214	0	0	0.85688874	0.51550139
-15.589041	-249.544525	-5.343153	0	0	0.85688874	0.51550139
-15.997908	-249.129684	-4.691193	0	0	0.85688874	0.51550139
-16.403704	-248.709457	-4.039371	0	0	0.85688874	0.51550139
-16.806356	-248.283859	-3.387700	0	0	0.85688874	0.51550139
-17.205795	-247.852921	-2.736216	0	0	0.85688874	0.51550139
-17.601952	-247.416672	-2.084931	0	0	0.85688874	0.51550139
-17.994761	-246.975128	-1.433883	0	0	0.85688874	0.51550139
-18.384150	-246.528336	-0.783100	0	0	0.85688874	0.51550139
-18.770056	-246.076309	-0.132596	0	0	0.85688874	0.51550139
-19.152405	-245.619095	0.517592	0	0	0.85688874	0.51550139
-19.531134	-245.156708	1.167443	0	0	0.85688874	0.51550139
-19.906176	-244.689194	1.816937	0	0	0.85688874	0.51550139
-20.277460	-244.216568	2.466039	0	0	0.85688874	0.51550139
-20.644922	-243.738892	3.114733	0	0	0.85688874	0.51550139
-21.008495	-243.256165	3.762991	0	0	0.85688874	0.51550139
-21.368118	-242.768463	4.410772	0	0	0.85688874	0.51550139
-21.723717	-242.275787	5.058074	0	0	0.85688874	0.51550139
-22.075233	-241.778198	5.704857	0	0	0.85688874	0.51550139
-22.422602	-241.275726	6.351098	0	0	0.85688874	0.51550139
-22.765755	-240.768417	6.996773	0	0	0.85688874	0.51550139
-23.104635	-240.256287	7.641850	0	0	0.85688874	0.51550139
-23.439173	-239.739410	8.286320	0	0	0.85688874	0.51550139
-23.769308	-239.217804	8.930138	0	0	0.85688874	0.51550139
-24.094976	-238.691528	9.573292	0	0	0.85688874	0.51550139
-24.416115	-238.160614	10.215753	0	0	0.85688874	0.51550139
-24.732666	-237.625107	10.857497	0	0	0.85688874	0.51550139
-25.044563	-237.085052	11.498489	0	0	0.85688874	0.51550139
-25.351753	-236.540497	12.138716	0	0	0.85688874	0.51550139
-25.654169	-235.991486	12.778145	0	0	0.85688874	0.51550139
-25.951757	-235.438065	13.416752	0	0	0.85688874	0.51550139
-26.244450	-234.880280	14.054522	0	0	0.85688874	0.51550139
-26.532198	-234.318192	14.691414	0	0	0.85688874	0.51550139
-26.814936	-233.751846	15.327413	0	0	0.85688874	0.51550139
-27.092611	-233.181290	15.962487	0	0	0.85688874	0.51550139
-27.365166	-232.606567	16.596621	0	0	0.85688874	0.51550139
-27.632540	-232.027725	17.229776	0	0	0.85688874	0.51550139
-27.894680	-231.444839	17.861946	0	0	0.85688874	0.51550139
-28.151533	-230.857956	18.493080	0	0	0.85688874	0.51550139
-28.403042	-230.267120	19.123184	0	0	0.85688874	0.51550139
-28.649155	-229.672379	19.752209	0	0	0.85688874	0.51550139
-28.889812	-229.073807	20.380135	0	0	0.85688874	0.51550139
-29.124969	-228.471466	21.006943	0	0	0.85688874	0.51550139
-29.354567	-227.865372	21.632610	0	0	0.85688874	0.51550139
-29.578562	-227.255630	22.257099	0	0	0.85688874	0.51550139
-29.796890	-226.642258	22.880404	0	0	0.85688874	0.51550139
-30.009520	-226.025345	23.502481	0	0	0.85688874	0.51550139
-30.216381	-225.404938	24.123322	0	0	0.85688874	0.51550139
-30.417439	-224.781097	24.742889	0	0	0.85688874	0.51550139
-30.612642	-224.153885	25.361158	0	0	0.85688874	0.51550139
-30.801939	-223.523361	25.978123	0	0	0.85688874	0.51550139
-30.985287	-222.889587	26.593737	0	0	0.85688874	0.51550139
-31.162638	-222.252625	27.207989	0	0	0.85688874	0.51550139
-31.333948	-221.612549	27.820854	0	0	0.85688874	0.51550139
-31.499172	-220.969406	28.432297	0	0	0.85688874	0.51550139
-31.658262	-220.323273	29.042303	0	0	0.85688874	0.51550139
-31.811180	-219.674194	29.650852	0	0	0.85688874	0.51550139
-31.957880	-219.022263	30.257906	0	0	0.85688874	0.51550139
-32.265545	-218.281006	30.731619	0	0	0.85688874	0.51550139
-33.167023	-217.218994	30.728247	0	0	0.85688874	0.51550139
-34.055084	-216.145752	30.724886	0	0	0.85688874	0.51550139
-34.929607	-215.061432	30.721504	0	0	0.80114363	0.59847213
-35.790432	-213.966187	30.718138	0	0	0.80114363	0.59847213
-36.637428	-212.860229	30.714777	0	0	0.80114363	0.59847213
-37.470470	-211.743698	30.711412	0	0	0.80114363	0.59847213
-38.289421	-210.616791	30.708044	0	0	0.80114363	0.59847213
-39.094147	-209.479691	30.704683	0	0	0.80114363	0.59847213
-39.884514	-208.332550	30.701330	0	0	0.80114363	0.59847213
-40.660427	-207.175568	30.697969	0	0	0.80114363	0.59847213
-41.421730	-206.008926	30.694622	0	0	0.80114363	0.59847213
-42.168327	-204.832809	30.691261	0	0	0.80114363	0.59847213
-42.900085	-203.647400	30.687920	0	0	0.80114363	0.59847213
-43.616890	-202.452896	30.684574	0	0	0.80114363	0.59847213
-44.318642	-201.249466	30.681231	0	0	0.80114363	0.59847213
-45.005211	-200.037308	30.677895	0	0	0.80114363	0.59847213
-45.676506	-198.816620	30.674553	0	0	0.80114363	0.59847213
-46.332397	-197.587585	30.671230	0	0	0.80114363	0.59847213
-46.972816	-196.350403	30.667892	0	0	0.80114363	0.59847213
-47.597630	-195.105270	30.664572	0	0	0.80114363	0.59847213
-48.206753	-193.852386	30.661255	0	0	0.80114363	0.59847213
-48.800087	-192.591949	30.657938	0	0	0.80114363	0.59847213
-49.377552	-191.324142	30.654613	0	0	0.80114363	0.59847213
-49.939030	-190.049179	30.651310	0	0	0.80114363	0.59847213
-50.484447	-188.767258	30.648010	0	0	0.80114363	0.59847213
-51.013714	-187.478592	30.644720	0	0	0.80114363	0.59847213
-51.526764	-186.183350	30.641417	0	0	0.80114363	0.59847213
-52.023491	-184.881775	30.638132	0	0	0.80114363	0.59847213
-52.503826	-183.574066	30.634844	0	0	0.80114363	0.59847213
-52.967705	-182.260391	30.631559	0	0	0.80114363	0.59847213
-53.415028	-180.941025	30.628288	0	0	0.80114363	0.59847213
-53.845745	-179.616119	30.625025	0	0	0.80114363	0.59847213
-54.259785	-178.285904	30.621759	0	0	0.80114363	0.59847213
-54.657082	-176.950592	30.618502	0	0	0.80114363	0.59847213
-55.037571	-175.610397	30.615246	0	0	0.73739371	0.67546319
-55.401192	-174.265518	30.611998	0	0	0.73739371	0.67546319
-55.747890	-172.916153	30.608759	0	0	0.73739371	0.67546319
-56.077602	-171.562561	30.605526	0	0	0.73739371	0.67546319
-56.390282	-170.204926	30.602304	0	0	0.73739371	0.67546319
-56.685894	-168.843445	30.599072	0	0	0.73739371	0.67546319
-56.964367	-167.478378	30.595860	0	0	0.73739371	0.67546319
-57.225670	-166.109894	30.592651	0	0	0.73739371	0.67546319
-57.469761	-164.738251	30.589445	0	0	0.73739371	0.67546319
-57.696594	-163.363632	30.586252	0	0	0.73739371	0.67546319
-57.906143	-161.986282	30.583067	0	0	0.73739371	0.67546319
-58.098373	-160.606400	30.579885	0	0	0.73739371	0.67546319
-58.273251	-159.224197	30.576712	0	0	0.73739371	0.67546319
-58.430744	-157.839920	30.573549	0	0	0.73739371	0.67546319
-58.570843	-156.453751	30.570385	0	0	0.73739371	0.67546319
-58.693508	-155.065933	30.567236	0	0	0.73739371	0.67546319
-58.798729	-153.676697	30.564095	0	0	0.73739371	0.67546319
-58.886490	-152.286224	30.560959	0	0	0.73739371	0.67546319
-58.956776	-150.894760	30.557827	0	0	0.73739371	0.67546319
-59.009567	-149.502533	30.554714	0	0	0.73739371	0.67546319
-59.044868	-148.109726	30.551598	0	0	0.73739371	0.67546319
-59.062664	-146.716599	30.548498	0	0	0.73739371	0.67546319
-59.062962	-145.323349	30.545404	0	0	0.73739371	0.67546319
-59.045750	-143.930191	30.542316	0	0	0.73739371	0.67546319
-59.011044	-142.537369	30.539232	0	0	0.73739371	0.67546319
-58.958828	-141.145096	30.536173	0	0	0.73739371	0.67546319
-58.889130	-139.753571	30.533113	0	0	0.73739371	0.67546319
-58.801960	-138.363022	30.530056	0	0	0.73739371	0.67546319
-58.697323	-136.973694	30.527021	0	0	0.73739371	0.67546319
-58.575237	-135.585770	30.523981	0	0	0.73739371	0.67546319
-58.435726	-134.199493	30.520958	0	0	0.73739371	0.67546319
-58.278809	-132.815079	30.517946	0	0	0.73739371	0.67546319
-58.104504	-131.432755	30.514950	0	0	0.66627604	0.74570519
-57.912849	-130.052704	30.511957	0	0	0.66627604	0.74570519
-57.703869	-128.675171	30.508976	0	0	0.66627604	0.74570519
-57.477608	-127.300369	30.505991	0	0	0.66627604	0.74570519
-57.234081	-125.928520	30.503035	0	0	0.66627604	0.74570519
-56.973343	-124.559830	30.500076	0	0	0.66627604	0.74570519
-56.695427	-123.194527	30.497137	0	0	0.66627604	0.74570519
-56.400375	-121.832825	30.494217	0	0	0.66627604	0.74570519
-56.088245	-120.474922	30.491291	0	0	0.66627604	0.74570519
-55.759075	-119.121048	30.488377	0	0	0.66627604	0.74570519
-55.412926	-117.771416	30.485474	0	0	0.66627604	0.74570519
-55.049847	-116.426231	30.482582	0	0	0.66627604	0.74570519
-54.669888	-115.085716	30.479710	0	0	0.66627604	0.74570519
-54.273125	-113.750076	30.476839	0	0	0.66627604	0.74570519
-53.859612	-112.419525	30.473986	0	0	0.66627604	0.74570519
-53.429409	-111.094269	30.471142	0	0	0.66627604	0.74570519
-52.982590	-109.774521	30.468311	0	0	0.66627604	0.74570519
-52.519222	-108.460480	30.465490	0	0	0.66627604	0.74570519
-52.039394	-107.152374	30.462679	0	0	0.66627604	0.74570519
-51.543152	-105.850388	30.459887	0	0	0.66627604	0.74570519
-51.030602	-104.554741	30.457094	0	0	0.66627604	0.74570519
-50.501808	-103.265633	30.454330	0	0	0.66627604	0.74570519
-49.956863	-101.983261	30.451563	0	0	0.66627604	0.74570519
-49.395847	-100.707848	30.448818	0	0	0.66627604	0.74570519
-48.818851	-99.439568	30.446083	0	0	0.66627604	0.74570519
-48.225967	-98.178635	30.443354	0	0	0.66627604	0.74570519
-47.617290	-96.925247	30.440639	0	0	0.66627604	0.74570519
-46.992905	-95.679611	30.437946	0	0	0.66627604	0.74570519
-46.352924	-94.441910	30.435265	0	0	0.66627604	0.74570519
-45.697449	-93.212349	30.432585	0	0	0.66627604	0.74570519
-45.026566	-91.991112	30.429932	0	0	0.66627604	0.74570519
-44.340397	-90.778404	30.427286	0	0	0.66627604	0.74570519
-43.639042	-89.574402	30.424654	0	0	0.58850112	0.8084964
-42.922623	-88.379311	30.422028	0	0	0.58850112	0.8084964
-42.191238	-87.193306	30.419422	0	0	0.58850112	0.8084964
-41.445015	-86.016579	30.416828	0	0	0.58850112	0.8084964
-40.684063	-84.849327	30.414249	0	0	0.58850112	0.8084964
-39.908501	-83.691727	30.411692	0	0	0.58850112	0.8084964
-39.118458	-82.543953	30.409140	0	0	0.58850112	0.8084964
-38.314060	-81.406189	30.406601	0	0	0.58850112	0.8084964
-37.495430	-80.278618	30.404076	0	0	0.58850112	0.8084964
-36.662697	-79.161430	30.401566	0	0	0.58850112	0.8084964
-35.815994	-78.054787	30.399073	0	0	0.58850112	0.8084964
-34.955448	-76.958855	30.396591	0	0	0.58850112	0.8084964
-34.081207	-75.873833	30.394127	0	0	0.58850112	0.8084964
-33.193398	-74.799866	30.391676	0	0	0.58850112	0.8084964
-32.292168	-73.737152	30.389240	0	0	0.58850112	0.8084964
-31.377651	-72.685822	30.386818	0	0	0.58850112	0.8084964
-30.450005	-71.646072	30.384411	0	0	0.58850112	0.8084964
-29.509367	-70.618065	30.382017	0	0	0.58850112	0.8084964
-28.555885	-69.601944	30.379639	0	0	0.58850112	0.8084964
-27.589708	-68.597885	30.377279	0	0	0.58850112	0.8084964
-26.610996	-67.606041	30.374933	0	0	0.58850112	0.8084964
-25.619900	-66.626564	30.372601	0	0	0.58850112	0.8084964
-24.616575	-65.659615	30.370283	0	0	0.58850112	0.8084964
-23.601177	-64.705353	30.367985	0	0	0.58850112	0.8084964
-22.573872	-63.763920	30.365704	0	0	0.58850112	0.8084964
-21.534819	-62.835457	30.363432	0	0	0.58850112	0.8084964
-20.484182	-61.920124	30.361179	0	0	0.58850112	0.8084964
-19.422125	-61.018066	30.358942	0	0	0.58850112	0.8084964
-18.348822	-60.129414	30.356718	0	0	0.58850112	0.8084964
-17.264437	-59.254322	30.354515	0	0	0.58850112	0.8084964
-16.169144	-58.392914	30.352324	0	0	0.58850112	0.8084964
-15.063111	-57.545338	30.350151	0	0	0.58850112	0.8084964
-13.946517	-56.711720	30.347996	0	0	0.50484609	0.86320938
-12.819539	-55.892193	30.345854	0	0	0.50484609	0.86320938
-11.682353	-55.086887	30.343731	0	0	0.50484609	0.86320938
-10.535137	-54.295933	30.341621	0	0	0.50484609	0.86320938
-9.378072	-53.519455	30.339533	0	0	0.50484609	0.86320938
-8.211345	-52.757568	30.337460	0	0	0.50484609	0.86320938
-7.035136	-52.010399	30.335402	0	0	0.50484609	0.86320938
-5.849632	-51.278069	30.333363	0	0	0.50484609	0.86320938
-4.655021	-50.560688	30.331339	0	0	0.50484609	0.86320938
-3.451490	-49.858364	30.329332	0	0	0.50484609	0.86320938
-2.239231	-49.171223	30.327345	0	0	0.50484609	0.86320938
-1.018430	-48.499355	30.325371	0	0	0.50484609	0.86320938
0.210713	-47.842888	30.323420	0	0	0.50484609	0.86320938
1.448006	-47.201900	30.321478	0	0	0.50484609	0.86320938
2.693258	-46.576519	30.319563	0	0	0.50484609	0.86320938
3.946269	-45.966824	30.317657	0	0	0.50484609	0.86320938
5.206839	-45.372917	30.315773	0	0	0.50484609	0.86320938
6.474774	-44.794895	30.313908	0	0	0.50484609	0.86320938
7.749870	-44.232845	30.312056	0	0	0.50484609	0.86320938
9.031930	-43.686859	30.310226	0	0	0.50484609	0.86320938
10.320749	-43.157017	30.308413	0	0	0.50484609	0.86320938
11.616124	-42.643414	30.306616	0	0	0.50484609	0.86320938
12.917848	-42.146126	30.304840	0	0	0.50484609	0.86320938
14.225718	-41.665222	30.303080	0	0	0.50484609	0.86320938
15.539525	-41.200790	30.301336	0	0	0.50484609	0.86320938
16.859068	-40.752903	30.299616	0	0	0.50484609	0.86320938
18.184132	-40.321621	30.297911	0	0	0.50484609	0.86320938
19.514509	-39.907024	30.296223	0	0	0.50484609	0.86320938
20.849993	-39.509171	30.294556	0	0	0.50484609	0.86320938
18.554283	-39.448799	30.292906	0	0	0	1
-4.314313	-41.043827	30.291273	0	0	0.50484609	0.86320938
-77.033447	-46.115761	30.289663	0	0	0	1
82.8837	-54.3226	-19.6658	0.0	0.0	0.801144409596	0.59847108115	
