109.931763	4.327902	-99.792847	0	0	0	1
109.238899	7.966990	-99.526558	0	0	0	1
110.056656	3.596614	-99.846382	0	0	0	1
109.086731	8.691142	-99.473595	0	0	0	1
110.176971	2.864237	-99.900017	0	0	0	1
108.930061	9.414005	-99.420738	0	0	0	1
110.292694	2.130799	-99.953735	0	0	0	1
108.768898	10.135552	-99.367981	0	0	0	1
110.403809	1.396329	-100.007530	0	0	0	1
108.603256	10.855757	-99.315331	0	0	0	1
110.510307	0.660854	-100.061417	0	0	0	1
108.433151	11.574594	-99.262794	0	0	0	1
108.258591	12.292031	-99.210373	0	0	0	1
110.612183	-0.075596	-100.115379	0	-0	-1	-4.371139e-08
108.079590	13.008044	-99.158066	0	0	0	1
110.709419	-0.812992	-100.169418	0	-0	-1	-4.371139e-08
107.896156	13.722606	-99.105873	0	0	0	1
110.802010	-1.551303	-100.223526	0	-0	-1	-4.371139e-08
107.708313	14.435688	-99.053795	0	0	0	1
110.889946	-2.290500	-100.277725	0	-0	-1	-4.371139e-08
107.516068	15.147266	-99.001839	0	0	0	1
110.973213	-3.030556	-100.331978	0	-0	-1	-4.371139e-08
107.319427	15.857310	-98.950005	0	0	-0.99500417	0.099833397
111.051811	-3.771441	-100.386307	0	-0	-1	-4.371139e-08
107.118416	16.565796	-98.898285	0	0	-0.99500417	0.099833397
111.125725	-4.513122	-100.440712	0	-0	-1	-4.371139e-08
106.913048	17.272697	-98.846710	0	0	-0.99500417	0.099833397
111.194946	-5.255571	-100.495171	0	-0	-1	-4.371139e-08
106.703323	17.977987	-98.795242	0	0	-0.99500417	0.099833397
111.259468	-5.998760	-100.549698	0	-0	-1	-4.371139e-08
106.489273	18.681641	-98.743919	0	0	-0.99500417	0.099833397
111.319275	-6.742657	-100.604294	0	-0	-1	-4.371139e-08
106.270905	19.383629	-98.692726	0	0	-0.99500417	0.099833397
111.374367	-7.487231	-100.658936	0	-0	-1	-4.371139e-08
106.048225	20.083927	-98.641663	0	0	-0.99500417	0.099833397
111.424728	-8.232454	-100.713638	0	0	0	1
105.821266	20.782515	-98.590752	0	0	-0.99500417	0.099833397
111.470360	-8.978295	-100.768394	0	0	0	1
105.590027	21.479357	-98.539963	0	0	-0.99500417	0.099833397
111.511246	-9.724724	-100.823204	0	0	0.99913515	0.041580682
105.354530	22.174433	-98.489319	0	0	0	1
111.547386	-10.471708	-100.878067	0	0	0.99913515	0.041580682
105.114784	22.867722	-98.438820	0	0	0	1
111.578773	-11.219219	-100.932968	0	0	0.99913515	0.041580682
104.870804	23.559193	-98.388451	0	0	0	1
111.605385	-11.967226	-100.987923	0	0	0.99913515	0.041580682
104.622612	24.248819	-98.338242	0	0	0	1
111.627235	-12.715697	-101.042931	0	0	0.99913515	0.041580682
104.370216	24.936583	-98.288177	0	0	0	1
111.644302	-13.464602	-101.097961	0	0	0.99913515	0.041580682
104.113640	25.622456	-98.238266	0	0	0	1
111.656593	-14.213909	-101.153046	0	0	0.99913515	0.041580682
103.852898	26.306412	-98.188507	0	0	0	1
111.664085	-14.963589	-101.208160	0	0	0.99913515	0.041580682
103.588005	26.988430	-98.138901	0	0	0	1
110.466850	-36.110512	-101.939804	0	0	0	1
110.359787	-36.867264	-101.955345	0	0	0	1
110.568924	-35.353535	-101.924263	0	0	0	1
110.247719	-37.623753	-101.970856	0	0	0	1
110.666008	-34.596359	-101.908699	0	0	0	1
111.666786	-15.713609	-101.263306	0	0	0.99913515	0.041580682
110.130661	-38.379940	-101.986366	0	0	0	1
110.758118	-33.839027	-101.893127	0	0	0	1
110.008598	-39.135792	-102.001846	0	0	0	1
110.845253	-33.081566	-101.877556	0	0	0	1
109.881531	-39.891285	-102.017311	0	0	0	1
110.927399	-32.324013	-101.861954	0	0	0	1
109.749451	-40.646374	-102.032768	0	0	0	1
111.004593	-31.566404	-101.846359	0	0	0	1
103.318970	27.668482	-98.089447	0	0	0	1
109.612366	-41.401024	-102.048203	0	0	0	1
111.076813	-30.808765	-101.830742	0	0	0	1
109.470268	-42.155205	-102.063622	0	0	0.98999249	0.14112005
111.664680	-16.463938	-101.318497	0	0	0.99913515	0.041580682
111.144081	-30.051140	-101.815117	0	0	0	1
109.323158	-42.908878	-102.079025	0	0	0.98999249	0.14112005
111.206390	-29.293554	-101.799484	0	0	0	1
109.171028	-43.662010	-102.094414	0	0	0.98999249	0.14112005
103.045815	28.346544	-98.040161	0	0	0	1
111.263756	-28.536045	-101.783844	0	0	0	1
109.013878	-44.414570	-102.109764	0	0	0.98999249	0.14112005
111.316185	-27.778646	-101.768188	0	0	0	1
111.657768	-17.214546	-101.373711	0	0	0.99913515	0.041580682
108.851715	-45.166512	-102.125114	0	0	0.98999249	0.14112005
111.363678	-27.021389	-101.752541	0	0	0	1
108.684532	-45.917809	-102.140427	0	0	0.98999249	0.14112005
102.768547	29.022596	-97.991020	0	0	0	1
111.406250	-26.264309	-101.736877	0	0	0	1
108.512329	-46.668427	-102.155731	0	0	0.98999249	0.14112005
111.646042	-17.965399	-101.428940	0	0	0	1
111.443901	-25.507435	-101.721207	0	0	0	1
108.335098	-47.418324	-102.171005	0	0	0.98999249	0.14112005
102.487198	29.696611	-97.942055	0	0	0	1
111.476646	-24.750805	-101.705551	0	0	0	1
108.152855	-48.167465	-102.186264	0	0	0.98999249	0.14112005
111.629494	-18.716467	-101.484215	0	0	0	1
111.504478	-23.994448	-101.689865	0	0	0	1
107.965584	-48.915821	-102.201485	0	0	0.98999249	0.14112005
102.201782	30.368565	-97.893250	0	0	0	1
111.527412	-23.238398	-101.674187	0	0	0	1
107.773293	-49.663357	-102.216698	0	0	0.98999249	0.14112005
111.608131	-19.467718	-101.539505	0	0	0	1
111.545464	-22.482689	-101.658501	0	0	0	1
107.575981	-50.410027	-102.231873	0	0	0.98999249	0.14112005
101.912300	31.038435	-97.844604	0	0	0	1
111.558632	-21.727350	-101.642822	0	0	0	1
107.373657	-51.155804	-102.247032	0	0	0.98999249	0.14112005
111.581932	-20.219124	-101.594818	0	0	0	1
111.566925	-20.972416	-101.627129	0	0	0	1
101.618782	31.706202	-97.796127	0	0	0	1
107.166306	-51.900650	-102.262169	0	0	0.98999249	0.14112005
106.953949	-52.644531	-102.277275	0	0	0.98999249	0.14112005
101.321243	32.371834	-97.747833	0	0	0	1
106.736572	-53.387409	-102.292343	0	0	0.98999249	0.14112005
106.514183	-54.129246	-102.307404	0	0	0.98999249	0.14112005
101.019699	33.035316	-97.699692	0	0	0	1
106.286781	-54.870010	-102.322418	0	0	0.98999249	0.14112005
100.714165	33.696621	-97.651733	0	0	0	1
106.054375	-55.609669	-102.337418	0	0	0.98999249	0.14112005
105.816963	-56.348175	-102.352379	0	0	0.98999249	0.14112005
100.404655	34.355728	-97.603958	0	0	0	1
105.574554	-57.085499	-102.367310	0	0	0.98999249	0.14112005
100.091202	35.012611	-97.556351	0	0	0	1
105.327148	-57.821606	-102.382217	0	0	0	1
99.773804	35.667252	-97.508919	0	0	0	1
105.074745	-58.556461	-102.397087	0	0	0	1
104.817352	-59.290024	-102.411926	0	0	0	1
99.452492	36.319626	-97.461678	0	0	0	1
104.554970	-60.022259	-102.426735	0	0	0	1
99.127266	36.969711	-97.414612	0	0	0	1
104.287613	-60.753136	-102.441505	0	0	0	1
98.798172	37.617485	-97.367737	0	0	-0.98006658	0.19866933
104.015274	-61.482609	-102.456253	0	0	0	1
103.737976	-62.210651	-102.470963	0	0	0	1
98.465202	38.262924	-97.321045	0	0	-0.98006658	0.19866933
103.455704	-62.937218	-102.485634	0	0	0	1
98.128380	38.906010	-97.274536	0	0	-0.98006658	0.19866933
103.168472	-63.662281	-102.500275	0	0	0	1
97.787735	39.546722	-97.228233	0	0	-0.98006658	0.19866933
102.876282	-64.385803	-102.514877	0	0	0	1
97.443275	40.185036	-97.182106	0	0	-0.98006658	0.19866933
102.579155	-65.107742	-102.529442	0	0	0.97095818	0.23924928
97.095024	40.820927	-97.136185	0	0	-0.98006658	0.19866933
102.277077	-65.828064	-102.543968	0	0	0.97095818	0.23924928
101.970078	-66.546738	-102.558464	0	0	0.97095818	0.23924928
96.742989	41.454384	-97.090446	0	0	-0.98006658	0.19866933
101.658142	-67.263725	-102.572914	0	0	0.97095818	0.23924928
96.387199	42.085377	-97.044914	0	0	0	1
101.341293	-67.978981	-102.587326	0	0	0.97095818	0.23924928
96.027679	42.713886	-96.999580	0	0	0	1
101.019531	-68.692482	-102.601707	0	0	0.97095818	0.23924928
95.664429	43.339897	-96.954453	0	0	0	1
100.692863	-69.404182	-102.616043	0	0	0.97095818	0.23924928
95.297478	43.963383	-96.909515	0	0	0	1
100.361305	-70.114059	-102.630341	0	0	0.97095818	0.23924928
94.926849	44.584328	-96.864792	0	0	0	1
100.024864	-70.822052	-102.644592	0	0	0.97095818	0.23924928
94.552551	45.202705	-96.820274	0	0	0	1
99.683540	-71.528152	-102.658806	0	0	0.97095818	0.23924928
94.174606	45.818501	-96.775963	0	0	0	1
99.337357	-72.232307	-102.672981	0	0	0.97095818	0.23924928
93.793037	46.431694	-96.731857	0	0	0	1
98.986305	-72.934486	-102.687111	0	0	0.97095818	0.23924928
98.630417	-73.634651	-102.701195	0	0	0.97095818	0.23924928
93.407867	47.042263	-96.687973	0	0	0	1
98.269684	-74.332771	-102.715233	0	0	0.97095818	0.23924928
93.019104	47.650188	-96.644295	0	0	0	1
97.904121	-75.028809	-102.729233	0	0	0.97095818	0.23924928
92.626770	48.255451	-96.600830	0	0	0	1
97.533745	-75.722717	-102.743187	0	0	0.97095818	0.23924928
92.230896	48.858032	-96.557594	0	0	0	1
97.158569	-76.414467	-102.757095	0	0	0.97095818	0.23924928
91.831482	49.457916	-96.514565	0	0	0	1
96.778595	-77.104027	-102.770958	0	0	0.97095818	0.23924928
91.428566	50.055073	-96.471756	0	0	0	1
96.393837	-77.791359	-102.784775	0	0	0.97095818	0.23924928
91.022156	50.649498	-96.429176	0	0	0	1
96.004311	-78.476425	-102.798538	0	0	0.97095818	0.23924928
90.612274	51.241165	-96.386818	0	0	0	1
95.610023	-79.159195	-102.812263	0	0	0	1
90.198944	51.830055	-96.344681	0	0	0	1
95.210991	-79.839622	-102.825935	0	0	0	1
89.782181	52.416153	-96.302773	0	0	0	1
94.807228	-80.517685	-102.839561	0	0	0	1
89.362007	52.999432	-96.261093	0	0	0	1
94.398743	-81.193344	-102.853134	0	0	0	1
88.938438	53.579891	-96.219650	0	0	0	1
93.985558	-81.866554	-102.866661	0	0	0	1
88.511505	54.157494	-96.178429	0	0	0	1
93.567673	-82.537285	-102.880127	0	0	0	1
88.081215	54.732227	-96.137451	0	0	0	1
93.145111	-83.205505	-102.893555	0	0	0	1
87.647598	55.304089	-96.096703	0	0	0	1
92.717888	-83.871178	-102.906929	0	0	0	1
87.210670	55.873039	-96.056190	0	0	0	1
92.286011	-84.534271	-102.920250	0	0	0	1
86.770447	56.439079	-96.015915	0	0	0	1
91.849510	-85.194740	-102.933525	0	0	0	1
86.326958	57.002178	-95.975883	0	0	-0.95533648	0.29552023
91.408379	-85.852554	-102.946732	0	0	0	1
85.880226	57.562321	-95.936096	0	0	-0.95533648	0.29552023
90.962654	-86.507675	-102.959900	0	0	0	1
85.430252	58.119503	-95.896545	0	0	-0.95533648	0.29552023
90.512337	-87.160080	-102.973007	0	0	0.94222235	0.33498812
84.977081	58.673698	-95.857246	0	0	-0.95533648	0.29552023
90.057442	-87.809731	-102.986061	0	0	0.94222235	0.33498812
84.520721	59.224884	-95.818184	0	0	0	1
89.598000	-88.456581	-102.999062	0	0	0.94222235	0.33498812
84.061195	59.773052	-95.779373	0	0	0	1
89.134018	-89.100601	-103.012001	0	0	0.94222235	0.33498812
83.598518	60.318192	-95.740814	0	0	0	1
88.665512	-89.741760	-103.024887	0	0	0.94222235	0.33498812
83.132713	60.860275	-95.702507	0	0	0	1
88.192505	-90.380020	-103.037720	0	0	0.94222235	0.33498812
82.663811	61.399296	-95.664452	0	0	0	1
87.715004	-91.015358	-103.050499	0	0	0.94222235	0.33498812
82.191826	61.935226	-95.626640	0	0	0	1
87.233040	-91.647720	-103.063217	0	0	0.94222235	0.33498812
81.716782	62.468063	-95.589096	0	0	0	1
86.746628	-92.277100	-103.075874	0	0	0.94222235	0.33498812
81.238686	62.997784	-95.551804	0	0	0	1
86.255783	-92.903427	-103.088478	0	0	0.94222235	0.33498812
80.757576	63.524380	-95.514771	0	0	0	1
85.760513	-93.526695	-103.101013	0	0	0.94222235	0.33498812
80.273468	64.047829	-95.477997	0	0	0	1
85.260857	-94.146866	-103.113495	0	0	0.94222235	0.33498812
79.786385	64.568115	-95.441490	0	0	0	1
84.756828	-94.763893	-103.125916	0	0	0.94222235	0.33498812
79.296341	65.085236	-95.405243	0	0	0	1
84.248436	-95.377754	-103.138275	0	0	0.94222235	0.33498812
78.803360	65.599159	-95.369255	0	0	0	1
83.735718	-95.988411	-103.150581	0	0	0.94222235	0.33498812
78.307465	66.109879	-95.333534	0	0	0	1
83.218681	-96.595840	-103.162819	0	0	0.94222235	0.33498812
77.808678	66.617393	-95.298080	0	0	0	1
82.697350	-97.199989	-103.174995	0	0	0	1
77.307022	67.121658	-95.262894	0	0	0	1
82.171745	-97.800850	-103.187111	0	0	0	1
76.802513	67.622688	-95.227982	0	0	0	1
81.641884	-98.398369	-103.199165	0	0	0	1
76.295181	68.120453	-95.193344	0	0	0	1
81.107788	-98.992523	-103.211151	0	0	0	1
75.785042	68.614952	-95.158966	0	0	0	1
80.569489	-99.583267	-103.223076	0	0	0	1
75.272110	69.106155	-95.124870	0	0	0	1
74.756416	69.594063	-95.091042	0	0	0	1
80.027000	-100.170586	-103.234932	0	0	0	1
74.237991	70.078651	-95.057503	0	0	0	1
79.480347	-100.754448	-103.246735	0	0	0	1
73.716835	70.559914	-95.024231	0	0	0	1
78.929543	-101.334801	-103.258469	0	0	0	1
73.192986	71.037834	-94.991241	0	0	0	1
78.374619	-101.911636	-103.270134	0	0	0	1
72.666458	71.512398	-94.958534	0	0	0	1
77.815605	-102.484901	-103.281723	0	0	0	1
72.137276	71.983604	-94.926102	0	0	0	1
77.252510	-103.054581	-103.293259	0	0	0	1
71.605453	72.451424	-94.893959	0	0	0	1
76.685364	-103.620621	-103.304726	0	0	0	1
71.071030	72.915855	-94.862106	0	0	0	1
76.114189	-104.183022	-103.316116	0	0	0	1
70.534012	73.376877	-94.830528	0	0	-0.92106097	0.38941839
75.539017	-104.741730	-103.327454	0	0	0	1
69.994431	73.834496	-94.799240	0	0	0	1
74.959869	-105.296715	-103.338715	0	0	0	1
69.452293	74.288673	-94.768242	0	0	0	1
74.376762	-105.847954	-103.349899	0	0	0	1
68.907639	74.739418	-94.737534	0	0	0	1
73.789726	-106.395409	-103.361023	0	0	0.90407214	0.42737988
68.360481	75.186714	-94.707115	0	0	0	1
73.198784	-106.939064	-103.372078	0	0	0.90407214	0.42737988
67.810844	75.630539	-94.676987	0	0	0	1
72.603958	-107.478874	-103.383064	0	0	0.90407214	0.42737988
67.258751	76.070892	-94.647148	0	0	0	1
72.005295	-108.014809	-103.393974	0	0	0.90407214	0.42737988
66.704224	76.507751	-94.617599	0	0	0	1
66.147270	76.941124	-94.588356	0	0	0	1
71.402794	-108.546844	-103.404816	0	0	0.90407214	0.42737988
65.587936	77.370979	-94.559402	0	0	0	1
70.796494	-109.074944	-103.415588	0	0	0.90407214	0.42737988
65.026230	77.797318	-94.530754	0	0	0	1
70.186417	-109.599091	-103.426285	0	0	0.90407214	0.42737988
64.462181	78.220131	-94.502403	0	0	0	1
69.572601	-110.119240	-103.436905	0	0	0.90407214	0.42737988
63.895798	78.639397	-94.474342	0	0	0	1
68.955055	-110.635376	-103.447464	0	0	0.90407214	0.42737988
63.327114	79.055107	-94.446587	0	0	0	1
68.333824	-111.147461	-103.457939	0	0	0.90407214	0.42737988
62.756149	79.467262	-94.419144	0	0	0	1
67.708923	-111.655464	-103.468346	0	0	0.90407214	0.42737988
62.182926	79.875847	-94.391991	0	0	0	1
67.080383	-112.159370	-103.478676	0	0	0.90407214	0.42737988
61.607468	80.280846	-94.365150	0	0	0	1
66.448235	-112.659134	-103.488937	0	0	0.90407214	0.42737988
61.029793	80.682251	-94.338608	0	0	0	1
65.812508	-113.154732	-103.499123	0	0	0	1
60.449924	81.080055	-94.312378	0	0	0	1
65.173233	-113.646141	-103.509232	0	0	0	1
59.867886	81.474251	-94.286446	0	0	0	1
64.530426	-114.133339	-103.519264	0	0	0	1
59.283695	81.864822	-94.260826	0	0	0	1
58.697384	82.251762	-94.235519	0	0	0	1
63.884125	-114.616280	-103.529221	0	0	0	1
58.108971	82.635063	-94.210526	0	0	0	1
63.234356	-115.094955	-103.539101	0	0	0	1
57.518471	83.014717	-94.185837	0	0	0	1
62.581158	-115.569321	-103.548904	0	0	0	1
56.925911	83.390709	-94.161461	0	0	0	1
61.924553	-116.039352	-103.558624	0	0	0	1
56.331318	83.763031	-94.137398	0	0	0	1
61.264565	-116.505043	-103.568275	0	0	0	1
55.734711	84.131676	-94.113647	0	0	0	1
60.601238	-116.966347	-103.577843	0	0	0	1
55.136108	84.496643	-94.090218	0	0	0	1
59.934589	-117.423241	-103.587334	0	0	0	1
54.535538	84.857918	-94.067101	0	0	0	1
59.264660	-117.875694	-103.596748	0	0	0	1
53.933018	85.215485	-94.044304	0	0	0	1
58.591473	-118.323692	-103.606087	0	0	0	1
53.328575	85.569344	-94.021820	0	0	-0.87758258	0.4794255
57.915062	-118.767204	-103.615341	0	0	0	1
52.722229	85.919479	-93.999657	0	0	-0.87758258	0.4794255
52.113995	86.265900	-93.977814	0	0	0	1
57.235470	-119.206207	-103.624512	0	0	0	1
51.503910	86.608582	-93.956284	0	0	0	1
56.552708	-119.640671	-103.633614	0	0	0	1
50.891983	86.947517	-93.935089	0	0	0	1
55.866821	-120.070564	-103.642616	0	0	0	1
50.278244	87.282707	-93.914207	0	0	0	1
55.177841	-120.495880	-103.651558	0	0	0	1
49.662716	87.614136	-93.893646	0	0	0	1
54.485794	-120.916588	-103.660408	0	0	0	1
49.045414	87.941803	-93.873413	0	0	0	1
53.790714	-121.332657	-103.669182	0	0	0	1
48.426369	88.265701	-93.853500	0	0	0	1
53.092640	-121.744064	-103.677872	0	0	0.85688874	0.51550139
47.805595	88.585815	-93.833923	0	0	0	1
52.391602	-122.150787	-103.686478	0	0	0.85688874	0.51550139
47.183121	88.902145	-93.814667	0	0	0	1
51.687626	-122.552811	-103.695000	0	0	0.85688874	0.51550139
46.558964	89.214684	-93.795731	0	0	0	1
50.980751	-122.950104	-103.703445	0	0	0.85688874	0.51550139
45.933151	89.523422	-93.777130	0	0	0	1
45.305702	89.828362	-93.758858	0	0	0	1
50.271015	-123.342644	-103.711800	0	0	0.85688874	0.51550139
44.676640	90.129478	-93.740906	0	0	0	1
49.558445	-123.730400	-103.720078	0	0	0.85688874	0.51550139
44.045986	90.426781	-93.723297	0	0	0	1
48.843079	-124.113365	-103.728264	0	0	0.85688874	0.51550139
43.413761	90.720253	-93.706009	0	0	0	1
48.124950	-124.491508	-103.736374	0	0	0.85688874	0.51550139
42.779991	91.009895	-93.689056	0	0	0	1
47.404087	-124.864815	-103.744392	0	0	0.85688874	0.51550139
42.144695	91.295700	-93.672432	0	0	0	1
46.680534	-125.233253	-103.752327	0	0	0	1
41.507900	91.577660	-93.656143	0	0	0	1
45.954323	-125.596809	-103.760185	0	0	0	1
40.869621	91.855774	-93.640182	0	0	0	1
45.225483	-125.955460	-103.767944	0	0	0	1
40.229885	92.130028	-93.624557	0	0	0	1
44.494053	-126.309181	-103.775627	0	0	0	1
39.588715	92.400429	-93.609276	0	0	0	1
38.946133	92.666954	-93.594315	0	0	0	1
43.760075	-126.657959	-103.783226	0	0	0	1
38.302155	92.929611	-93.579697	0	0	0	1
43.023571	-127.001762	-103.790726	0	0	0	1
37.656811	93.188393	-93.565422	0	0	0	1
42.284584	-127.340584	-103.798157	0	0	0	1
37.010117	93.443291	-93.551468	0	0	0	1
41.543148	-127.674393	-103.805481	0	0	0	1
36.362103	93.694298	-93.537865	0	0	0	1
40.799309	-128.003174	-103.812737	0	0	0	1
35.712784	93.941414	-93.524597	0	0	0	1
40.053085	-128.326920	-103.819893	0	0	0	1
35.062183	94.184639	-93.511658	0	0	-0.82533563	0.56464246
39.304527	-128.645599	-103.826958	0	0	0	1
34.410324	94.423958	-93.499069	0	0	-0.82533563	0.56464246
38.553665	-128.959183	-103.833939	0	0	0	1
33.757229	94.659370	-93.486809	0	0	-0.82533563	0.56464246
33.102924	94.890869	-93.474899	0	0	-0.82533563	0.56464246
37.800541	-129.267685	-103.840843	0	0	0	1
32.447422	95.118454	-93.463326	0	0	0	1
37.045185	-129.571045	-103.847641	0	0	0	1
31.790751	95.342117	-93.452087	0	0	0	1
36.287636	-129.869278	-103.854362	0	0	0	1
31.132931	95.561867	-93.441193	0	0	0	1
35.527935	-130.162354	-103.860992	0	0	0	1
30.473989	95.777679	-93.430649	0	0	0	1
34.766121	-130.450272	-103.867531	0	0	0	1
29.813940	95.989555	-93.420433	0	0	0	1
34.002220	-130.732986	-103.873978	0	0	0	1
29.152811	96.197510	-93.410576	0	0	0	1
33.236279	-131.010498	-103.880341	0	0	0	1
28.490623	96.401512	-93.401054	0	0	0	1
32.468338	-131.282791	-103.886604	0	0	0	1
27.827398	96.601578	-93.391869	0	0	0	1
27.163153	96.797691	-93.383034	0	0	0	1
31.698427	-131.549835	-103.892784	0	0	0	1
26.497917	96.989861	-93.374542	0	0	0	1
30.926584	-131.811646	-103.898865	0	0	0	1
25.831711	97.178078	-93.366386	0	0	0	1
30.152855	-132.068176	-103.904861	0	0	0	1
25.164551	97.362335	-93.358589	0	0	0	1
29.377274	-132.319427	-103.910767	0	0	0.80114363	0.59847213
24.496466	97.542625	-93.351128	0	0	0	1
28.599878	-132.565369	-103.916580	0	0	0.80114363	0.59847213
23.827473	97.718964	-93.344009	0	0	0	1
27.820713	-132.806015	-103.922302	0	0	0.80114363	0.59847213
23.157597	97.891327	-93.337242	0	0	0	1
27.039808	-133.041321	-103.927940	0	0	0.80114363	0.59847213
22.486862	98.059723	-93.330818	0	0	0	1
26.257204	-133.271301	-103.933479	0	0	0.80114363	0.59847213
21.815283	98.224152	-93.324745	0	0	0	1
21.142887	98.384613	-93.319016	0	0	0	1
25.472948	-133.495911	-103.938919	0	0	0	1
20.469696	98.541084	-93.313637	0	0	0	1
24.687073	-133.715164	-103.944275	0	0	0	1
19.795729	98.693581	-93.308594	0	0	0	1
23.899611	-133.929031	-103.949524	0	0	0	1
19.121008	98.842102	-93.303909	0	0	0	1
23.110615	-134.137512	-103.954697	0	0	0	1
18.445557	98.986626	-93.299553	0	0	0	1
22.320118	-134.340591	-103.959770	0	0	0	1
17.769398	99.127174	-93.295555	0	0	0	1
21.528156	-134.538254	-103.964752	0	0	0	1
17.092548	99.263725	-93.291908	0	0	0	1
20.734776	-134.730484	-103.969650	0	0	0	1
16.415035	99.396294	-93.288605	0	0	0	1
19.940010	-134.917267	-103.974434	0	0	0	1
15.736876	99.524879	-93.285660	0	0	-0.76484218	0.64421769
15.058096	99.649452	-93.283043	0	0	-0.76484218	0.64421769
19.143908	-135.098618	-103.979141	0	0	0	1
14.378717	99.770042	-93.280792	0	0	-0.76484218	0.64421769
18.346502	-135.274506	-103.983749	0	0	0	1
13.698756	99.886635	-93.278885	0	0	-0.76484218	0.64421769
17.547831	-135.444916	-103.988251	0	0	0	1
13.018240	99.999222	-93.277321	0	0	-0.76484218	0.64421769
16.747944	-135.609833	-103.992668	0	0	0	1
12.337188	100.107819	-93.276108	0	0	-0.76484218	0.64421769
15.946872	-135.769272	-103.996986	0	0	0	1
11.655622	100.212402	-93.275238	0	0	-0.76484218	0.64421769
15.144658	-135.923218	-104.001213	0	0	0	1
10.973562	100.312988	-93.274712	0	0	0	1
14.341345	-136.071640	-104.005341	0	0	0	1
10.291031	100.409576	-93.274544	0	0	0	1
13.536970	-136.214554	-104.009377	0	0	0	1
9.608053	100.502151	-93.274719	0	0	0	1
8.924646	100.590729	-93.275246	0	0	0	1
12.731578	-136.351944	-104.013321	0	0	0	1
8.240835	100.675301	-93.276131	0	0	0	1
11.925206	-136.483795	-104.017174	0	0	0	1
7.556637	100.755859	-93.277351	0	0	0	1
11.117896	-136.610107	-104.020920	0	0	0	1
6.872076	100.832405	-93.278915	0	0	0	1
10.309688	-136.730881	-104.024574	0	0	0	1
6.187176	100.904945	-93.280830	0	0	0	1
9.500622	-136.846085	-104.028130	0	0	0	1
5.501955	100.973488	-93.283104	0	0	0	1
8.690743	-136.955734	-104.031601	0	0	0	1
4.816434	101.038010	-93.285713	0	0	0	1
7.880088	-137.059799	-104.034958	0	0	0	1
4.130637	101.098526	-93.288681	0	0	0	1
7.068700	-137.158310	-104.038231	0	0	0	1
3.444584	101.155029	-93.291985	0	0	0	1
2.758297	101.207527	-93.295639	0	0	0	1
6.256618	-137.251221	-104.041405	0	0	0	1
2.071797	101.256012	-93.299644	0	0	0	1
5.443885	-137.338562	-104.044479	0	0	0	1
1.385107	101.300491	-93.304001	0	0	0	1
4.630541	-137.420303	-104.047455	0	0	0	1
0.698245	101.340958	-93.308701	0	0	0	1
3.816629	-137.496460	-104.050346	0	0	0.73739371	0.67546319
0.011234	101.377411	-93.313744	0	0	0	1
3.002190	-137.567001	-104.053139	0	0	0	1
-0.675903	101.409851	-93.319138	0	0	0	1
2.187262	-137.631958	-104.055824	0	0	0	1
-1.363147	101.438293	-93.324875	0	0	0	1
1.371890	-137.691299	-104.058418	0	0	0	1
-2.050475	101.462715	-93.330956	0	0	0	1
0.556113	-137.745026	-104.060913	0	0	0	1
-2.737867	101.483139	-93.337395	0	0	0	1
-3.425301	101.499550	-93.344162	0	0	0	1
-0.260026	-137.793137	-104.063301	0	0	0	1
-4.112756	101.511948	-93.351288	0	0	0	1
-1.076486	-137.835632	-104.065613	0	0	0	1
-4.800210	101.520355	-93.358757	0	0	0	1
-1.893226	-137.872513	-104.067802	0	0	0	1
-5.487643	101.524742	-93.366562	0	0	0	1
-2.710204	-137.903778	-104.069908	0	0	0	1
-6.175034	101.525131	-93.374725	0	0	0	1
-3.527379	-137.929413	-104.071922	0	0	0	1
-6.862360	101.521523	-93.383224	0	0	0	1
-4.344710	-137.949417	-104.073822	0	0	0	1
-7.549601	101.513901	-93.392067	0	0	0	1
-5.162154	-137.963821	-104.075638	0	0	0	1
-8.236872	101.516762	-93.380577	0	0	0	1
-8.924204	101.515991	-93.368896	0	0	0	1
-5.979671	-137.972580	-104.077354	0	0	0	1
-9.611573	101.511223	-93.357559	0	0	0	1
-6.797219	-137.975723	-104.078972	0	0	0	1
-10.298961	101.502449	-93.346573	0	0	0	1
-7.614757	-137.973236	-104.080490	0	0	0	1
-10.986341	101.489662	-93.335915	0	0	-0.69670669	0.71735611
-11.673698	101.472878	-93.325615	0	0	-0.69670669	0.71735611
-8.432242	-137.965118	-104.081902	0	0	0	1
-12.411199	101.449768	-93.315598	0	0	-0.69670669	0.71735611
-9.165779	-137.952789	-104.083099	0	0	0	1
-13.186910	101.420006	-93.305855	0	0	-0.69670669	0.71735611
-9.894442	-137.936005	-104.084198	0	0	0	1
-13.962447	101.385139	-93.296471	0	0	-0.69670669	0.71735611
-10.622982	-137.914688	-104.085182	0	0	0	1
-14.737777	101.345146	-93.287422	0	0	-0.69670669	0.71735611
-11.351372	-137.888885	-104.086075	0	0	0	1
-15.512861	101.300041	-93.278732	0	0	-0.69670669	0.71735611
-12.079585	-137.858566	-104.086884	0	0	0	1
-16.287668	101.249817	-93.270386	0	0	-0.69670669	0.71735611
-12.807592	-137.823746	-104.087570	0	0	0	1
-17.062160	101.194481	-93.262383	0	0	0	1
-13.535368	-137.784424	-104.088181	0	0	0	1
-17.836304	101.134026	-93.254730	0	0	0	1
-14.262884	-137.740601	-104.088676	0	0	0	1
-18.610064	101.068474	-93.247429	0	0	0	1
-14.990112	-137.692261	-104.089081	0	0	0	1
-19.383402	100.997810	-93.240479	0	0	0	1
-15.717027	-137.639435	-104.089386	0	0	0	1
-20.156284	100.922043	-93.233879	0	0	0	1
-16.443598	-137.582108	-104.089592	0	0	0	1
-20.928679	100.841171	-93.227631	0	0	0	1
-17.169802	-137.520279	-104.089699	0	0	0	1
-21.700548	100.755203	-93.221733	0	0	0	1
-17.895607	-137.453964	-104.089706	0	0	0	1
-22.471855	100.664139	-93.216179	0	0	0	1
-18.620989	-137.383163	-104.089615	0	0	0	1
-23.242567	100.567993	-93.210983	0	0	0	1
-19.345919	-137.307877	-104.089432	0	0	0	1
-24.012650	100.466751	-93.206131	0	0	0	1
-20.070370	-137.228088	-104.089142	0	0	0.66627604	0.74570519
-24.782066	100.360428	-93.201637	0	0	0	1
-20.794315	-137.143829	-104.088760	0	0	0	1
-25.550783	100.249023	-93.197487	0	0	0	1
-21.517727	-137.055084	-104.088272	0	0	0	1
-26.318764	100.132545	-93.193687	0	0	0	1
-22.240580	-136.961884	-104.087700	0	0	0	1
-27.085974	100.011002	-93.190247	0	0	0	1
-22.962843	-136.864197	-104.087021	0	0	0	1
-27.852377	99.884399	-93.187149	0	0	0	1
-23.684490	-136.762039	-104.086243	0	0	0	1
-28.617941	99.752731	-93.184418	0	0	0	1
-29.382627	99.616020	-93.182030	0	0	0	1
-24.405499	-136.655411	-104.085358	0	0	0	1
-30.146408	99.474258	-93.180000	0	0	0	1
-25.125834	-136.544327	-104.084381	0	0	0	1
-30.909243	99.327454	-93.178314	0	0	0	1
-25.845472	-136.428802	-104.083313	0	0	0	1
-31.671097	99.175621	-93.176979	0	0	0	1
-26.564388	-136.308807	-104.082138	0	0	0	1
-32.431938	99.018753	-93.175995	0	0	0	1
-27.282553	-136.184372	-104.080872	0	0	0	1
-33.191730	98.856873	-93.175377	0	0	0	1
-27.999939	-136.055496	-104.079506	0	0	0	1
-33.950439	98.689980	-93.175095	0	0	0	1
-28.716522	-135.922165	-104.078041	0	0	0	1
-34.708031	98.518082	-93.175171	0	0	0	1
-29.432270	-135.784424	-104.076485	0	0	0	1
-35.464466	98.341187	-93.175598	0	0	0	1
-30.147160	-135.642242	-104.074814	0	0	0	1
-36.219719	98.159302	-93.176384	0	0	0	1
-30.861166	-135.495636	-104.073051	0	0	0	1
-36.973751	97.972443	-93.177528	0	0	0	1
-31.574255	-135.344604	-104.071198	0	0	0	1
-37.726528	97.780602	-93.179008	0	0	0	1
-32.286407	-135.189178	-104.069237	0	0	0	1
-38.478016	97.583809	-93.180847	0	0	0	1
-32.997589	-135.029327	-104.067184	0	0	0	1
-39.228180	97.382057	-93.183037	0	0	0	1
-33.707779	-134.865082	-104.065033	0	0	0	1
-39.976982	97.175362	-93.185577	0	0	0	1
-34.416950	-134.696457	-104.062782	0	0	0	1
-40.724400	96.963722	-93.188469	0	0	0	1
-35.125072	-134.523422	-104.060448	0	0	0	1
-41.470387	96.747169	-93.191719	0	0	0	1
-35.832119	-134.346024	-104.057999	0	0	0	1
-42.214916	96.525703	-93.195312	0	0	0	1
-36.538067	-134.164230	-104.055466	0	0	0	1
-42.957951	96.299324	-93.199265	0	0	0	1
-37.242886	-133.978073	-104.052826	0	0	0	1
-43.699459	96.068062	-93.203575	0	0	0	1
-37.946548	-133.787567	-104.050087	0	0	0	1
-44.439415	95.831902	-93.208221	0	0	0	1
-38.649036	-133.592682	-104.047249	0	0	0	1
-45.177769	95.590881	-93.213226	0	0	0	1
-39.350311	-133.393463	-104.044327	0	0	0	1
-45.914497	95.344994	-93.218575	0	0	0	1
-40.050354	-133.189911	-104.041298	0	0	0	1
-46.649567	95.094261	-93.224281	0	0	0	1
-40.749134	-132.982010	-104.038177	0	0	0	1
-47.382938	94.838692	-93.230339	0	0	0	1
-41.446632	-132.769791	-104.034966	0	0	0	1
-48.114586	94.578293	-93.236748	0	0	0	1
-42.142818	-132.553253	-104.031647	0	0	0	1
-48.844471	94.313080	-93.243492	0	0	0	1
-42.837658	-132.332413	-104.028244	0	0	0.58850112	0.8084964
-49.572567	94.043076	-93.250603	0	0	0	1
-50.298836	93.768280	-93.258049	0	0	0	1
-43.531136	-132.107254	-104.024734	0	0	0.58850112	0.8084964
-51.023247	93.488708	-93.265854	0	0	0	1
-44.223221	-131.877808	-104.021133	0	0	0.58850112	0.8084964
-51.745762	93.204376	-93.274010	0	0	0	1
-44.913887	-131.644089	-104.017433	0	0	0.58850112	0.8084964
-52.466354	92.915291	-93.282509	0	0	-0.54030229	0.84147099
-45.603107	-131.406067	-104.013641	0	0	0	1
-53.184994	92.621475	-93.291351	0	0	-0.54030229	0.84147099
-46.290859	-131.163788	-104.009743	0	0	0	1
-53.901642	92.322945	-93.300560	0	0	-0.54030229	0.84147099
-46.977112	-130.917267	-104.005768	0	0	0	1
-54.616272	92.019699	-93.310089	0	0	-0.54030229	0.84147099
-47.661846	-130.666473	-104.001678	0	0	0	1
-55.328846	91.711769	-93.319992	0	0	-0.54030229	0.84147099
-48.345032	-130.411438	-103.997513	0	0	0	1
-56.039337	91.399155	-93.330223	0	0	-0.54030229	0.84147099
-49.026638	-130.152191	-103.993240	0	0	0	1
-56.747707	91.081886	-93.340805	0	0	-0.54030229	0.84147099
-49.706642	-129.888702	-103.988876	0	0	0	1
-57.453930	90.759972	-93.351738	0	0	-0.54030229	0.84147099
-50.385025	-129.621002	-103.984413	0	0	0	1
-58.157974	90.433418	-93.363007	0	0	-0.54030229	0.84147099
-51.061756	-129.349106	-103.979874	0	0	0	1
-58.859802	90.102257	-93.374626	0	0	0	1
-51.736809	-129.073013	-103.975212	0	0	0	1
-59.559387	89.766495	-93.386589	0	0	0	1
-52.410152	-128.792740	-103.970482	0	0	0	1
-60.256702	89.426140	-93.398895	0	0	0	1
-53.081776	-128.508286	-103.965637	0	0	0	1
-60.951710	89.081230	-93.411552	0	0	0	1
-53.751640	-128.219666	-103.960709	0	0	0	1
-61.644375	88.731766	-93.424545	0	0	0	1
-54.419720	-127.926910	-103.955696	0	0	0	1
-62.334679	88.377762	-93.437881	0	0	0	1
-55.086002	-127.629997	-103.950577	0	0	0	1
-63.022575	88.019249	-93.451553	0	0	0	1
-55.750446	-127.328964	-103.945366	0	0	0	1
-63.708046	87.656227	-93.465576	0	0	0	1
-56.413040	-127.023804	-103.940063	0	0	0	1
-64.391060	87.288727	-93.479935	0	0	0	1
-57.073753	-126.714539	-103.934669	0	0	0	1
-65.071587	86.916763	-93.494637	0	0	0	1
-57.732555	-126.401176	-103.929192	0	0	0	1
-65.749580	86.540352	-93.509674	0	0	0	1
-66.425034	86.159508	-93.525055	0	0	0	1
-58.389427	-126.083733	-103.923607	0	0	0	1
-67.097900	85.774254	-93.540771	0	0	0	1
-59.044346	-125.762199	-103.917938	0	0	0	1
-67.768158	85.384613	-93.556831	0	0	0	1
-59.697273	-125.436623	-103.912178	0	0	0	1
-68.435776	84.990601	-93.573219	0	0	0	1
-60.348202	-125.106979	-103.906319	0	0	0	1
-69.100723	84.592224	-93.589951	0	0	-0.45359611	0.89120736
-60.997097	-124.773308	-103.900383	0	0	0	1
-69.762970	84.189522	-93.607018	0	0	-0.45359611	0.89120736
-61.643940	-124.435600	-103.894341	0	0	0	1
-70.422493	83.782501	-93.624413	0	0	-0.45359611	0.89120736
-62.288692	-124.093887	-103.888222	0	0	0	1
-71.079254	83.371178	-93.642151	0	0	-0.45359611	0.89120736
-62.931347	-123.748169	-103.881996	0	0	0	1
-71.733231	82.955589	-93.660225	0	0	-0.45359611	0.89120736
-63.571873	-123.398460	-103.875687	0	0	0	1
-72.384392	82.535728	-93.678619	0	0	-0.45359611	0.89120736
-64.210243	-123.044777	-103.869301	0	0	0.50484609	0.86320938
-73.032707	82.111649	-93.697357	0	0	-0.45359611	0.89120736
-64.846428	-122.687134	-103.862808	0	0	0.50484609	0.86320938
-73.678154	81.683342	-93.716431	0	0	-0.45359611	0.89120736
-65.480415	-122.325539	-103.856232	0	0	0.50484609	0.86320938
-74.320694	81.250839	-93.735825	0	0	-0.45359611	0.89120736
-66.112175	-121.959999	-103.849564	0	0	0.50484609	0.86320938
-74.960304	80.814163	-93.755554	0	0	-0.45359611	0.89120736
-66.741676	-121.590546	-103.842812	0	0	0.50484609	0.86320938
-75.596962	80.373337	-93.775612	0	0	-0.45359611	0.89120736
-67.368912	-121.217171	-103.835968	0	0	0.50484609	0.86320938
-76.230629	79.928383	-93.795990	0	0	-0.45359611	0.89120736
-67.993835	-120.839912	-103.829041	0	0	0	1
-76.861298	79.479301	-93.816704	0	0	-0.45359611	0.89120736
-68.616447	-120.458763	-103.822014	0	0	0	1
-77.488914	79.026146	-93.837746	0	0	-0.45359611	0.89120736
-78.113464	78.568916	-93.859108	0	0	-0.45359611	0.89120736
-69.236702	-120.073746	-103.814911	0	0	0	1
-78.734917	78.107643	-93.880806	0	0	-0.45359611	0.89120736
-69.854591	-119.684875	-103.807716	0	0	0	1
-79.353256	77.642349	-93.902824	0	0	-0.45359611	0.89120736
-70.470085	-119.292160	-103.800430	0	0	0	1
-79.968445	77.173042	-93.925163	0	0	0	1
-71.083153	-118.895622	-103.793060	0	0	0	1
-80.580460	76.699768	-93.947823	0	0	0	1
-71.693779	-118.495277	-103.785606	0	0	0	1
-81.189270	76.222534	-93.970810	0	0	0	1
-72.301941	-118.091133	-103.778061	0	0	0	1
-81.794861	75.741364	-93.994110	0	0	0	1
-72.907616	-117.683197	-103.770432	0	0	0	1
-82.397186	75.256294	-94.017731	0	0	0	1
-73.510773	-117.271500	-103.762718	0	0	0	1
-82.996239	74.767326	-94.041679	0	0	0	1
-74.111397	-116.856056	-103.754913	0	0	0	1
-83.591980	74.274498	-94.065941	0	0	0	1
-74.709457	-116.436867	-103.747032	0	0	0	1
-84.184395	73.777832	-94.090523	0	0	-0.36235775	0.93203909
-75.304939	-116.013962	-103.739059	0	0	0	1
-84.773453	73.277351	-94.115417	0	0	-0.36235775	0.93203909
-75.897820	-115.587349	-103.731003	0	0	0	1
-85.359131	72.773079	-94.140625	0	0	-0.36235775	0.93203909
-76.488068	-115.157043	-103.722855	0	0	0	1
-85.941399	72.265038	-94.166153	0	0	-0.36235775	0.93203909
-86.520233	71.753258	-94.191994	0	0	-0.36235775	0.93203909
-77.075661	-114.723068	-103.714638	0	0	0	1
-87.095619	71.237755	-94.218140	0	0	-0.36235775	0.93203909
-77.660583	-114.285423	-103.706329	0	0	0	1
-87.667519	70.718552	-94.244606	0	0	-0.36235775	0.93203909
-78.242805	-113.844147	-103.697937	0	0	0	1
-88.235924	70.195686	-94.271370	0	0	-0.36235775	0.93203909
-78.822319	-113.399239	-103.689461	0	0	0	1
-88.800789	69.669182	-94.298454	0	0	-0.36235775	0.93203909
-79.399078	-112.950722	-103.680901	0	0	0	1
-89.362106	69.139046	-94.325844	0	0	-0.36235775	0.93203909
-79.973083	-112.498611	-103.672264	0	0	0	1
-89.919846	68.605324	-94.353539	0	0	-0.36235775	0.93203909
-80.544296	-112.042923	-103.663544	0	0	0	1
-90.473984	68.068031	-94.381538	0	0	-0.36235775	0.93203909
-81.112701	-111.583679	-103.654739	0	0	0	1
-91.024506	67.527199	-94.409843	0	0	-0.36235775	0.93203909
-81.678284	-111.120888	-103.645859	0	0	0	1
-91.571373	66.982849	-94.438454	0	0	-0.36235775	0.93203909
-82.241005	-110.654572	-103.636894	0	0	0	1
-92.114578	66.435005	-94.467361	0	0	-0.36235775	0.93203909
-82.800850	-110.184746	-103.627846	0	0	0	1
-92.654091	65.883698	-94.496582	0	0	-0.36235775	0.93203909
-93.189888	65.328957	-94.526093	0	0	-0.36235775	0.93203909
-83.357803	-109.711426	-103.618721	0	0	0.41614682	0.90929743
-93.721947	64.770798	-94.555901	0	0	-0.36235775	0.93203909
-83.911842	-109.234627	-103.609512	0	0	0.41614682	0.90929743
-94.250252	64.209251	-94.586014	0	0	-0.36235775	0.93203909
-84.462936	-108.754379	-103.600227	0	0	0.41614682	0.90929743
-94.774773	63.644352	-94.616425	0	0	-0.36235775	0.93203909
-85.011078	-108.270691	-103.590866	0	0	0.41614682	0.90929743
-95.295494	63.076115	-94.647118	0	0	-0.36235775	0.93203909
-85.556229	-107.783577	-103.581421	0	0	0.41614682	0.90929743
-95.812393	62.504578	-94.678123	0	0	-0.36235775	0.93203909
-86.098381	-107.293068	-103.571899	0	0	0.41614682	0.90929743
-96.325447	61.929764	-94.709404	0	0	-0.36235775	0.93203909
-86.637505	-106.799164	-103.562294	0	0	0.41614682	0.90929743
-96.834633	61.351696	-94.740990	0	0	-0.36235775	0.93203909
-87.173584	-106.301895	-103.552620	0	0	0.41614682	0.90929743
-97.339935	60.770409	-94.772865	0	0	-0.26749883	0.96355818
-87.706596	-105.801277	-103.542862	0	0	0.41614682	0.90929743
-97.841331	60.185925	-94.805023	0	0	-0.26749883	0.96355818
-88.236526	-105.297333	-103.533035	0	0	0	1
-98.338799	59.598267	-94.837471	0	0	-0.26749883	0.96355818
-98.832314	59.007477	-94.870201	0	0	-0.26749883	0.96355818
-88.763336	-104.790070	-103.523125	0	0	0	1
-99.321869	58.413570	-94.903229	0	0	-0.26749883	0.96355818
-89.287025	-104.279518	-103.513138	0	0	0	1
-99.807434	57.816582	-94.936523	0	0	-0.26749883	0.96355818
-89.807564	-103.765694	-103.503082	0	0	0	1
-100.288994	57.216534	-94.970116	0	0	-0.26749883	0.96355818
-90.324936	-103.248611	-103.492950	0	0	0	1
-100.766525	56.613464	-95.003990	0	0	-0.26749883	0.96355818
-90.839111	-102.728294	-103.482735	0	0	0	1
-101.240013	56.007393	-95.038132	0	0	-0.26749883	0.96355818
-91.350082	-102.204758	-103.472450	0	0	0	1
-101.709435	55.398350	-95.072563	0	0	-0.26749883	0.96355818
-91.857819	-101.678032	-103.462090	0	0	0	1
-102.174774	54.786369	-95.107269	0	0	-0.26749883	0.96355818
-92.362305	-101.148117	-103.451660	0	0	0	1
-102.636017	54.171471	-95.142250	0	0	-0.26749883	0.96355818
-103.093132	53.553696	-95.177505	0	0	-0.26749883	0.96355818
-92.863525	-100.615051	-103.441154	0	0	0	1
-103.546120	52.933052	-95.213036	0	0	-0.26749883	0.96355818
-93.361450	-100.078842	-103.430573	0	0	0	1
-103.994942	52.309597	-95.248833	0	0	-0.26749883	0.96355818
-93.856064	-99.539520	-103.419922	0	0	0	1
-104.439606	51.683338	-95.284904	0	0	-0.26749883	0.96355818
-94.347351	-98.997093	-103.409195	0	0	0	1
-104.880066	51.054314	-95.321243	0	0	-0.26749883	0.96355818
-94.835289	-98.451591	-103.398399	0	0	0	1
-105.316330	50.422550	-95.357857	0	0	-0.26749883	0.96355818
-95.319855	-97.903030	-103.387535	0	0	0	1
-105.748367	49.788074	-95.394730	0	0	-0.26749883	0.96355818
-95.801041	-97.351425	-103.376602	0	0	0	1
-106.176155	49.150925	-95.431870	0	0	-0.26749883	0.96355818
-106.599693	48.511127	-95.469269	0	0	-0.26749883	0.96355818
-96.278816	-96.796814	-103.365593	0	0	0	1
-107.018951	47.868717	-95.506935	0	0	-0.26749883	0.96355818
-96.753166	-96.239197	-103.354515	0	0	0	1
-107.433929	47.223709	-95.544853	0	0	-0.26749883	0.96355818
-97.224068	-95.678604	-103.343369	0	0	0	1
-107.844604	46.576141	-95.583038	0	0	-0.26749883	0.96355818
-97.691513	-95.115059	-103.332153	0	0	0	1
-108.250954	45.926052	-95.621483	0	0	-0.26749883	0.96355818
-98.155472	-94.548576	-103.320869	0	0	0	1
-108.652962	45.273460	-95.660179	0	0	-0.26749883	0.96355818
-98.615936	-93.979187	-103.309517	0	0	0	1
-109.050629	44.618401	-95.699127	0	0	-0.16996714	0.98544973
-109.443924	43.960907	-95.738327	0	0	-0.16996714	0.98544973
-99.072876	-93.406898	-103.298096	0	0	0	1
-109.832840	43.300999	-95.777779	0	0	-0.16996714	0.98544973
-99.526283	-92.831741	-103.286606	0	0	0.32328956	0.94630009
-110.217361	42.638721	-95.817482	0	0	-0.16996714	0.98544973
-99.976135	-92.253738	-103.275055	0	0	0.32328956	0.94630009
-110.597481	41.974091	-95.857437	0	0	-0.16996714	0.98544973
-100.422409	-91.672905	-103.263428	0	0	0.32328956	0.94630009
-110.973167	41.307152	-95.897636	0	0	-0.16996714	0.98544973
-100.865097	-91.089264	-103.251747	0	0	0.32328956	0.94630009
-111.344421	40.637924	-95.938080	0	0	-0.16996714	0.98544973
-111.711227	39.966450	-95.978760	0	0	-0.16996714	0.98544973
-101.304176	-90.502831	-103.239998	0	0	0.32328956	0.94630009
-112.073570	39.292747	-96.019691	0	0	-0.16996714	0.98544973
-101.739632	-89.913643	-103.228180	0	0	0.32328956	0.94630009
-112.431435	38.616856	-96.060852	0	0	-0.16996714	0.98544973
-102.171440	-89.321716	-103.216293	0	0	0.32328956	0.94630009
-112.784813	37.938805	-96.102264	0	0	-0.16996714	0.98544973
-102.599586	-88.727074	-103.204353	0	0	0.32328956	0.94630009
-113.133690	37.258621	-96.143898	0	0	-0.16996714	0.98544973
-103.024055	-88.129730	-103.192337	0	0	0.32328956	0.94630009
-113.478050	36.576344	-96.185783	0	0	-0.16996714	0.98544973
-113.817886	35.891994	-96.227898	0	0	-0.16996714	0.98544973
-103.444832	-87.529709	-103.180267	0	0	0.32328956	0.94630009
-114.153183	35.205624	-96.270233	0	0	-0.16996714	0.98544973
-103.861893	-86.927040	-103.168137	0	0	0.32328956	0.94630009
-114.483940	34.517235	-96.312813	0	0	-0.16996714	0.98544973
-104.275230	-86.321747	-103.155937	0	0	0	1
-114.810127	33.826878	-96.355606	0	0	-0.16996714	0.98544973
-104.684814	-85.713837	-103.143684	0	0	0	1
-115.131744	33.134583	-96.398636	0	0	-0.16996714	0.98544973
-105.090645	-85.103355	-103.131363	0	0	0	1
-115.448776	32.440384	-96.441895	0	0	-0.16996714	0.98544973
-115.761223	31.744299	-96.485367	0	0	-0.16996714	0.98544973
-105.492691	-84.490303	-103.118980	0	0	0	1
-116.069061	31.046371	-96.529068	0	0	-0.16996714	0.98544973
-105.890938	-83.874718	-103.106537	0	0	0	1
-116.372284	30.346630	-96.572983	0	0	-0.16996714	0.98544973
-106.285385	-83.256615	-103.094040	0	0	0	1
-116.670891	29.645105	-96.617119	0	0	-0.16996714	0.98544973
-106.675995	-82.636024	-103.081482	0	0	0	1
-116.964859	28.941832	-96.661476	0	0	-0.16996714	0.98544973
-117.254181	28.236843	-96.706039	0	0	-0.16996714	0.98544973
-107.062767	-82.012955	-103.068863	0	0	0	1
-117.538857	27.530165	-96.750824	0	0	-0.16996714	0.98544973
-107.445679	-81.387451	-103.056190	0	0	0	1
-117.818871	26.821835	-96.795807	0	0	-0.070737201	0.99749499
-107.824715	-80.759529	-103.043457	0	0	0	1
-118.094208	26.111881	-96.841011	0	0	-0.070737201	0.99749499
-108.199860	-80.129204	-103.030663	0	0	0	1
-118.364876	25.400335	-96.886429	0	0	-0.070737201	0.99749499
-118.630852	24.687235	-96.932030	0	0	-0.070737201	0.99749499
-108.571098	-79.496506	-103.017815	0	0	0	1
-118.892143	23.972607	-96.977859	0	0	-0.070737201	0.99749499
-108.938423	-78.861458	-103.004906	0	0	0	1
-119.148720	23.256485	-97.023865	0	0	-0.070737201	0.99749499
-109.301811	-78.224075	-102.991951	0	0	0	1
-119.400589	22.538900	-97.070091	0	0	-0.070737201	0.99749499
-119.647743	21.819889	-97.116508	0	0	-0.070737201	0.99749499
-109.661247	-77.584396	-102.978943	0	0	0	1
-119.890167	21.099482	-97.163124	0	0	-0.070737201	0.99749499
-110.016708	-76.942451	-102.965866	0	0	0	1
-120.127869	20.377707	-97.209938	0	0	-0.070737201	0.99749499
-110.368202	-76.298233	-102.952751	0	0	0	1
-120.360825	19.654596	-97.256943	0	0	-0.070737201	0.99749499
-120.589035	18.930189	-97.304131	0	0	-0.070737201	0.99749499
-110.715691	-75.651794	-102.939568	0	0	0	1
-120.812508	18.204514	-97.351524	0	0	-0.070737201	0.99749499
-111.059181	-75.003151	-102.926346	0	0	0	1
-121.031212	17.477602	-97.399094	0	0	-0.070737201	0.99749499
-111.398636	-74.352333	-102.913055	0	0	0	1
-121.245155	16.749487	-97.446854	0	0	-0.070737201	0.99749499
-121.454330	16.020201	-97.494789	0	0	-0.070737201	0.99749499
-111.734070	-73.699348	-102.899727	0	0	0	1
-121.658737	15.289775	-97.542915	0	0	-0.070737201	0.99749499
-112.065437	-73.044235	-102.886337	0	0	0.22720209	0.97384763
-121.858360	14.558244	-97.591209	0	0	-0.070737201	0.99749499
-112.392746	-72.387016	-102.872894	0	0	0.22720209	0.97384763
-122.053207	13.825635	-97.639702	0	0	-0.070737201	0.99749499
-122.243256	13.091988	-97.688347	0	0	-0.070737201	0.99749499
-112.715981	-71.727715	-102.859413	0	0	0.22720209	0.97384763
-122.428520	12.357331	-97.737183	0	0	-0.070737201	0.99749499
-113.035118	-71.066353	-102.845879	0	0	0.22720209	0.97384763
-122.608986	11.621697	-97.786179	0	0	-0.070737201	0.99749499
-122.784653	10.885119	-97.835350	0	0	-0.070737201	0.99749499
-113.350151	-70.402962	-102.832291	0	0	0.22720209	0.97384763
-122.955513	10.147627	-97.884697	0	0	-0.070737201	0.99749499
-113.661064	-69.737564	-102.818657	0	0	0.22720209	0.97384763
-123.121574	9.409256	-97.934212	0	0	-0.070737201	0.99749499
-123.282822	8.670036	-97.983887	0	0	-0.070737201	0.99749499
-113.967850	-69.070190	-102.804970	0	0	0.22720209	0.97384763
-123.439247	7.930003	-98.033714	0	0	-0.070737201	0.99749499
-114.270485	-68.400856	-102.791237	0	0	0.22720209	0.97384763
-123.590866	7.189185	-98.083717	0	0	-0.070737201	0.99749499
-123.737663	6.447617	-98.133858	0	0	0.029199523	0.9995736
-114.568970	-67.729584	-102.777466	0	0	0.22720209	0.97384763
-123.879646	5.705330	-98.184166	0	0	0.029199523	0.9995736
-114.863274	-67.056412	-102.763634	0	0	0.22720209	0.97384763
-124.016800	4.962358	-98.234634	0	0	0.029199523	0.9995736
-124.149132	4.218731	-98.285248	0	0	0.029199523	0.9995736
-115.153412	-66.381363	-102.749771	0	0	0.22720209	0.97384763
-124.276642	3.474482	-98.336029	0	0	0.029199523	0.9995736
-115.439339	-65.704460	-102.735840	0	0	0.22720209	0.97384763
-124.399315	2.729646	-98.386932	0	0	0.029199523	0.9995736
-124.517174	1.984250	-98.438004	0	0	0.029199523	0.9995736
-115.721069	-65.025719	-102.721886	0	0	0	1
-124.630196	1.238331	-98.489212	0	0	0.029199523	0.9995736
-115.998573	-64.345184	-102.707878	0	0	0	1
-124.738388	0.491918	-98.540565	0	0	0.029199523	0.9995736
-124.841743	-0.254957	-98.592056	0	0	0.029199523	0.9995736
-116.271851	-63.662872	-102.693825	0	0	0	1
-124.940277	-1.002258	-98.643677	0	0	0.029199523	0.9995736
-125.033974	-1.749957	-98.695442	0	0	0.029199523	0.9995736
-116.540894	-62.978809	-102.679726	0	0	0	1
-125.122841	-2.498021	-98.747337	0	0	0.029199523	0.9995736
-116.805672	-62.293018	-102.665596	0	0	0	1
-125.206886	-3.246416	-98.799370	0	0	0.029199523	0.9995736
-125.286095	-3.995114	-98.851532	0	0	0.029199523	0.9995736
-117.066193	-61.605530	-102.651405	0	0	0	1
-125.360481	-4.744082	-98.903831	0	0	0.029199523	0.9995736
-125.430031	-5.493284	-98.956245	0	0	0.029199523	0.9995736
-117.322433	-60.916370	-102.637199	0	0	0	1
-125.494766	-6.242693	-99.008789	0	0	0.029199523	0.9995736
-125.554665	-6.992274	-99.061447	0	0	0.029199523	0.9995736
-117.574387	-60.225567	-102.622932	0	0	0	1
-125.609749	-7.741997	-99.114235	0	0	0.029199523	0.9995736
-125.660011	-8.491831	-99.167130	0	0	0.029199523	0.9995736
-117.822044	-59.533142	-102.608627	0	0	0	1
-125.705452	-9.241742	-99.220146	0	0	0.029199523	0.9995736
-125.746078	-9.991700	-99.273277	0	0	0.029199523	0.9995736
-118.065392	-58.839123	-102.594284	0	0	0	1
-125.781891	-10.741673	-99.326515	0	0	0.029199523	0.9995736
-125.812897	-11.491631	-99.379868	0	0	0.029199523	0.9995736
-118.304420	-58.143536	-102.579903	0	0	0	1
-125.839096	-12.241540	-99.433334	0	0	0.029199523	0.9995736
-125.860489	-12.991370	-99.486893	0	0	0.029199523	0.9995736
-118.539116	-57.446411	-102.565483	0	0	0	1
-125.877075	-13.741091	-99.540558	0	0	0.029199523	0.9995736
-125.888870	-14.490668	-99.594330	0	0	0.029199523	0.9995736
-118.769470	-56.747768	-102.551025	0	0	0	1
-125.895874	-15.240074	-99.648193	0	0	0.1288445	0.99166481
-125.898079	-15.989275	-99.702156	0	0	0.1288445	0.99166481
-118.995476	-56.047646	-102.536522	0	0	0	1
-125.895508	-16.738241	-99.756218	0	0	0.1288445	0.99166481
-125.888153	-17.486940	-99.810364	0	0	0.1288445	0.99166481
-125.876022	-18.235344	-99.864601	0	0	0.1288445	0.99166481
-119.217125	-55.346058	-102.521988	0	0	0	1
-125.859131	-18.983419	-99.918938	0	0	0.1288445	0.99166481
-125.837463	-19.731134	-99.973351	0	0	0.1288445	0.99166481
-125.811035	-20.478460	-100.027847	0	0	0.1288445	0.99166481
-119.434402	-54.643040	-102.507416	0	0	0	1
-125.779861	-21.225367	-100.082436	0	0	0.1288445	0.99166481
-125.743927	-21.971823	-100.137093	0	0	0.1288445	0.99166481
-119.647301	-53.938618	-102.492813	0	0	0	1
-125.703255	-22.717796	-100.191833	0	0	0.1288445	0.99166481
-125.657852	-23.463259	-100.246643	0	0	0.1288445	0.99166481
-125.607712	-24.208179	-100.301529	0	0	0.1288445	0.99166481
-125.552849	-24.952528	-100.356491	0	0	0.1288445	0.99166481
-119.855804	-53.232811	-102.478172	0	0	0	1
-125.493263	-25.696274	-100.411507	0	0	0.1288445	0.99166481
-125.428978	-26.439386	-100.466599	0	0	0.1288445	0.99166481
-125.359985	-27.181835	-100.521767	0	0	0.1288445	0.99166481
-125.286293	-27.923594	-100.576973	0	0	0.1288445	0.99166481
-120.059921	-52.525658	-102.463501	0	0	0	1
-125.207924	-28.664627	-100.632263	0	0	0.1288445	0.99166481
-120.279251	-51.822350	-102.419800	0	0	0.1288445	0.99166481
-125.124863	-29.404911	-100.687599	0	0	0.1288445	0.99166481
-120.502579	-51.119640	-102.363754	0	0	0.1288445	0.99166481
-125.037140	-30.144409	-100.742996	0	0	0.1288445	0.99166481
-120.721558	-50.415302	-102.307701	0	0	0.1288445	0.99166481
-124.944740	-30.883099	-100.798439	0	0	0.1288445	0.99166481
-120.936157	-49.709366	-102.251633	0	0	0.1288445	0.99166481
-124.847694	-31.620945	-100.853935	0	0	0.1288445	0.99166481
-121.146393	-49.001854	-102.195572	0	0	0.1288445	0.99166481
-124.745995	-32.357922	-100.909477	0	0	0.1288445	0.99166481
-121.352234	-48.292797	-102.139496	0	0	0.1288445	0.99166481
-124.639656	-33.093998	-100.965073	0	0	0.1288445	0.99166481
-121.553673	-47.582222	-102.083427	0	0	0.1288445	0.99166481
-124.528687	-33.829147	-101.020714	0	0	0.1288445	0.99166481
-121.750694	-46.870152	-102.027367	0	0	0.1288445	0.99166481
-124.413101	-34.563335	-101.076393	0	0	0.1288445	0.99166481
-121.943283	-46.156620	-101.971291	0	0	0.1288445	0.99166481
-124.292900	-35.296535	-101.132118	0	0	0.1288445	0.99166481
-122.131439	-45.441647	-101.915237	0	0	0.1288445	0.99166481
-124.168098	-36.028721	-101.187881	0	0	0.1288445	0.99166481
-122.315140	-44.725262	-101.859184	0	0	0.1288445	0.99166481
-124.038704	-36.759861	-101.243675	0	0	0.1288445	0.99166481
-122.494370	-44.007496	-101.803131	0	0	0.1288445	0.99166481
-123.904724	-37.489925	-101.299507	0	0	0.1288445	0.99166481
-122.669136	-43.288372	-101.747101	0	0	0.1288445	0.99166481
-123.766174	-38.218891	-101.355370	0	0	0.1288445	0.99166481
