130.856781	-312.550049	-213.386810	0	0	0	1
57.015068	-156.672562	-92.609520	0	0	0	1
33.949608	-107.985329	-54.882477	0	0	0	1
23.604845	-86.281845	-38.044327	0	0	0	1
23.385561	-87.021744	-38.448719	0	0	0	1
23.158514	-87.762360	-38.853676	0	0	0	1
22.923674	-88.503616	-39.259171	0	0	0	1
22.681009	-89.245415	-39.665211	0	0	0	1
22.430490	-89.987671	-40.071751	0	0	0	1
22.172096	-90.730301	-40.478798	0	0	0	1
21.905794	-91.473198	-40.886322	0	0	0	1
21.631561	-92.216286	-41.294315	0	0	0	1
21.349373	-92.959473	-41.702759	0	0	0	1
21.059206	-93.702660	-42.111641	0	0	0	1
20.761036	-94.445755	-42.520931	0	0	0	1
20.454845	-95.188683	-42.930637	0	0	0	1
20.140614	-95.931328	-43.340721	0	0	0	1
19.818321	-96.673607	-43.751171	0	0	0	1
19.487951	-97.415428	-44.161976	0	0	0	1
19.149485	-98.156700	-44.573124	0	0	0	1
18.802908	-98.897316	-44.984581	0	0	0	1
18.448208	-99.637192	-45.396358	0	0	0	1
18.085367	-100.376236	-45.808411	0	0	0	1
17.714380	-101.114342	-46.220741	0	0	0	1
17.335230	-101.851425	-46.633327	0	0	0.80114363	0.59847213
16.947912	-102.587379	-47.046150	0	0	0.80114363	0.59847213
16.552416	-103.322113	-47.459202	0	0	0.80114363	0.59847213
16.148731	-104.055542	-47.872459	0	0	0.80114363	0.59847213
15.736856	-104.787552	-48.285908	0	0	0.80114363	0.59847213
15.316783	-105.518051	-48.699524	0	0	0.80114363	0.59847213
14.888512	-106.246948	-49.113308	0	0	0	1
14.452032	-106.974144	-49.527218	0	0	0	1
14.007350	-107.699532	-49.941265	0	0	0	1
13.554463	-108.423027	-50.355419	0	0	0	1
13.093371	-109.144531	-50.769665	0	0	0	1
12.624079	-109.863945	-51.183998	0	0	0	1
12.146584	-110.581161	-51.598373	0	0	0	1
11.660896	-111.296097	-52.012806	0	0	0	1
11.167022	-112.008636	-52.427261	0	0	0	1
10.664963	-112.718697	-52.841724	0	0	0	1
10.154733	-113.426178	-53.256180	0	0	0	1
9.636335	-114.130974	-53.670616	0	0	0	1
9.109785	-114.832993	-54.085011	0	0	0	1
8.575093	-115.532135	-54.499359	0	0	0	1
8.032271	-116.228302	-54.913631	0	0	0	1
7.481335	-116.921402	-55.327816	0	0	0	1
6.922300	-117.611328	-55.741905	0	0	0	1
6.355181	-118.297981	-56.155865	0	0	0	1
5.779994	-118.981270	-56.569691	0	0	0	1
5.196763	-119.661095	-56.983360	0	0	0	1
4.605506	-120.337349	-57.396870	0	0	0	1
4.006243	-121.009949	-57.810184	0	0	0	1
3.398999	-121.678795	-58.223305	0	0	0	1
2.783795	-122.343781	-58.636200	0	0	0	1
2.160658	-123.004814	-59.048866	0	0	0	1
1.529614	-123.661797	-59.461281	0	0	0	1
0.890690	-124.314636	-59.873432	0	0	0.73739371	0.67546319
0.243917	-124.963226	-60.285297	0	0	0.73739371	0.67546319
-0.410680	-125.607483	-60.696861	0	0	0.73739371	0.67546319
-1.073066	-126.247299	-61.108109	0	0	0	1
-1.743211	-126.882584	-61.519028	0	0	0	1
-2.421080	-127.513245	-61.929592	0	0	0	1
-3.106640	-128.139175	-62.339802	0	0	0	1
-3.799853	-128.760284	-62.749622	0	0	0	1
-4.500684	-129.376495	-63.159050	0	0	0	1
-5.209094	-129.987686	-63.568069	0	0	0	1
-5.925043	-130.593781	-63.976650	0	0	0	1
-6.648492	-131.194672	-64.384796	0	0	0	1
-7.379398	-131.790283	-64.792473	0	0	0	1
-8.117719	-132.380493	-65.199677	0	0	0	1
-8.863410	-132.965240	-65.606392	0	0	0	1
-9.616427	-133.544418	-66.012581	0	0	0	1
-10.376722	-134.117935	-66.418251	0	0	0	1
-11.144250	-134.685715	-66.823395	0	0	0	1
-11.918960	-135.247635	-67.227959	0	0	0	1
-12.700802	-135.803619	-67.631966	0	0	0	1
-13.489727	-136.353592	-68.035385	0	0	0	1
-14.285683	-136.897446	-68.438179	0	0	0	1
-15.088613	-137.435104	-68.840370	0	0	0	1
-15.898467	-137.966461	-69.241920	0	0	0	1
-16.715187	-138.491440	-69.642815	0	0	0	1
-17.538719	-139.009964	-70.043045	0	0	0	1
-18.369003	-139.521927	-70.442581	0	0	0	1
-19.205980	-140.027252	-70.841415	0	0	0	1
-20.049593	-140.525864	-71.239548	0	0	0	1
-20.899776	-141.017654	-71.636940	0	0	0	1
-21.756474	-141.502548	-72.033585	0	0	0	1
-22.619616	-141.980469	-72.429466	0	0	0.66627604	0.74570519
-23.489145	-142.451340	-72.824577	0	0	0.66627604	0.74570519
-24.364990	-142.915054	-73.218880	0	0	0	1
-25.247087	-143.371536	-73.612381	0	0	0	1
-26.135372	-143.820724	-74.005058	0	0	0	1
-27.029772	-144.262512	-74.396896	0	0	0	1
-27.930220	-144.696854	-74.787865	0	0	0	1
-28.836645	-145.123627	-75.177963	0	0	0	1
-29.748972	-145.542786	-75.567184	0	0	0	1
-30.667135	-145.954239	-75.955498	0	0	0	1
-31.591059	-146.357925	-76.342896	0	0	0	1
-32.520664	-146.753738	-76.729362	0	0	0	1
-33.455883	-147.141632	-77.114883	0	0	0	1
-34.396633	-147.521515	-77.499428	0	0	0	1
-35.342838	-147.893326	-77.883003	0	0	0	1
-36.294422	-148.256989	-78.265572	0	0	0	1
-37.251305	-148.612427	-78.647148	0	0	0	1
-38.213409	-148.959564	-79.027687	0	0	0	1
-39.180649	-149.298340	-79.407188	0	0	0	1
-40.152943	-149.628693	-79.785637	0	0	0	1
-41.130211	-149.950531	-80.163017	0	0	0	1
-42.112366	-150.263809	-80.539330	0	0	0	1
-43.099331	-150.568451	-80.914520	0	0	0	1
-44.091011	-150.864395	-81.288605	0	0	0	1
-45.087322	-151.151566	-81.661560	0	0	0	1
-46.088181	-151.429901	-82.033371	0	0	0	1
-47.093498	-151.699356	-82.404022	0	0	0	1
-48.103180	-151.959839	-82.773506	0	0	0	1
-49.117146	-152.211319	-83.141800	0	0	0	1
-50.135300	-152.453720	-83.508896	0	0	0	1
-51.157551	-152.686996	-83.874779	0	0	0	1
-52.183807	-152.911057	-84.239418	0	0	0	1
-53.213974	-153.125885	-84.602821	0	0	0	1
-54.247959	-153.331406	-84.964958	0	0	0	1
-55.285671	-153.527573	-85.325829	0	0	0	1
-56.327011	-153.714310	-85.685410	0	0	0	1
-57.371883	-153.891586	-86.043686	0	0	0	1
-58.420197	-154.059341	-86.400642	0	0	0	1
-59.471851	-154.217529	-86.756279	0	0	0	1
-60.526745	-154.366104	-87.110565	0	0	0	1
-61.584785	-154.505005	-87.463493	0	0	0	1
-62.645870	-154.634201	-87.815048	0	0	0	1
-63.709900	-154.753616	-88.165222	0	0	0	1
-64.776772	-154.863251	-88.513985	0	0	0	1
-65.846390	-154.963013	-88.861351	0	0	0	1
-66.918648	-155.052887	-89.207268	0	0	0	1
-67.993454	-155.132843	-89.551765	0	0	0	1
-69.070686	-155.202805	-89.894791	0	0	0	1
-70.150253	-155.262756	-90.236351	0	0	0	1
-71.232056	-155.312653	-90.576439	0	0	0	1
-72.315987	-155.352463	-90.915024	0	0	0	1
-73.401932	-155.382156	-91.252106	0	0	0	1
-74.489792	-155.401672	-91.587662	0	0	0	1
-75.579460	-155.411011	-91.921677	0	0	0	1
-76.670837	-155.410110	-92.254158	0	0	0	1
-77.763802	-155.398941	-92.585068	0	0	0	1
-78.858253	-155.377502	-92.914398	0	0	0	1
-79.954094	-155.345749	-93.242149	0	0	0	1
-81.051208	-155.303635	-93.568298	0	0	0	1
-82.149483	-155.251160	-93.892838	0	0	0	1
-83.248810	-155.188293	-94.215744	0	0	0	1
-84.349083	-155.115005	-94.537018	0	0	0	1
-85.450195	-155.031265	-94.856636	0	0	0	1
-86.552025	-154.937073	-95.174583	0	0	0.50484609	0.86320938
-87.654480	-154.832397	-95.490868	0	0	0	1
-88.757431	-154.717209	-95.805450	0	0	0	1
-89.860786	-154.591522	-96.118340	0	0	0	1
-90.964409	-154.455276	-96.429512	0	0	0	1
-92.068214	-154.308487	-96.738960	0	0	0	1
-93.172073	-154.151138	-97.046669	0	0	0	1
-94.275879	-153.983215	-97.352631	0	0	0	1
-95.379517	-153.804688	-97.656822	0	0	0	1
-96.482880	-153.615570	-97.959244	0	0	0	1
-97.585854	-153.415848	-98.259880	0	0	0	1
-98.688316	-153.205521	-98.558708	0	0	0	1
-99.790161	-152.984558	-98.855736	0	0	0	1
-100.891289	-152.752975	-99.150940	0	0	0	1
-101.991562	-152.510773	-99.444305	0	0	0	1
-103.090881	-152.257919	-99.735825	0	0	0	1
-104.189133	-151.994461	-100.025490	0	0	0	1
-105.286186	-151.720352	-100.313286	0	0	0	1
-106.381958	-151.435623	-100.599213	0	0	0	1
-107.476311	-151.140259	-100.883240	0	0	0	1
-108.569130	-150.834274	-101.165359	0	0	0	1
-109.660316	-150.517685	-101.445572	0	0	0	1
-110.749756	-150.190475	-101.723862	0	0	0	1
-111.837318	-149.852661	-102.000214	0	0	0	1
-112.922905	-149.504272	-102.274620	0	0	0	1
-114.006393	-149.145294	-102.547066	0	0	0	1
-115.087669	-148.775742	-102.817551	0	0	0	1
-116.166618	-148.395645	-103.086052	0	0	0	1
-117.243149	-148.005005	-103.352562	0	0	0	1
-118.317123	-147.603836	-103.617081	0	0	0	1
-119.388420	-147.192169	-103.879585	0	0	0	1
-120.456955	-146.770004	-104.140068	0	0	0.41614682	0.90929743
-121.522598	-146.337387	-104.398514	0	0	0.41614682	0.90929743
-122.585228	-145.894318	-104.654930	0	0	0	1
-123.644753	-145.440811	-104.909294	0	0	0	1
-124.701042	-144.976929	-105.161591	0	0	0	1
-125.754005	-144.502655	-105.411827	0	0	0	1
-126.803505	-144.018036	-105.659973	0	0	0	1
-127.849449	-143.523102	-105.906029	0	0	0	1
-128.891708	-143.017868	-106.149979	0	0	0	1
-129.930176	-142.502380	-106.391830	0	0	0	1
-130.964752	-141.976669	-106.631554	0	0	0	1
-131.995316	-141.440765	-106.869156	0	0	0	1
-133.021759	-140.894699	-107.104614	0	0	0	1
-134.043976	-140.338501	-107.337921	0	0	0	1
-135.061859	-139.772217	-107.569077	0	0	0	1
-136.075272	-139.195892	-107.798073	0	0	0	1
-137.084152	-138.609543	-108.024879	0	0	0	1
-138.088348	-138.013229	-108.249512	0	0	0	1
-139.087769	-137.406982	-108.471947	0	0	0	1
-140.082306	-136.790848	-108.692184	0	0	0	1
-141.071869	-136.164886	-108.910210	0	0	0	1
-142.056320	-135.529114	-109.126015	0	0	0	1
-143.035568	-134.883606	-109.339592	0	0	0	1
-144.009521	-134.228394	-109.550934	0	0	0	1
-144.978027	-133.563538	-109.760033	0	0	0	1
-145.941040	-132.889069	-109.966873	0	0	0	1
-146.898422	-132.205063	-110.171463	0	0	0	1
-147.850067	-131.511551	-110.373779	0	0	0	1
-148.795883	-130.808609	-110.573814	0	0	0	1
-149.735764	-130.096268	-110.771568	0	0	0	1
-150.669617	-129.374603	-110.967033	0	0	0	1
-151.597336	-128.643661	-111.160187	0	0	0.32328956	0.94630009
-152.518799	-127.903526	-111.351044	0	0	0.32328956	0.94630009
-153.433914	-127.154228	-111.539581	0	0	0.32328956	0.94630009
-154.342606	-126.395836	-111.725800	0	0	0	1
-155.244766	-125.628418	-111.909683	0	0	0	1
-156.140274	-124.852036	-112.091225	0	0	0	1
-157.029053	-124.066742	-112.270432	0	0	0	1
-157.911011	-123.272629	-112.447289	0	0	0	1
-158.786011	-122.469742	-112.621780	0	0	0	1
-159.654022	-121.658157	-112.793900	0	0	0	1
-160.514908	-120.837936	-112.963661	0	0	0	1
-161.368561	-120.009163	-113.131035	0	0	0	1
-162.214920	-119.171898	-113.296028	0	0	0	1
-163.053879	-118.326218	-113.458626	0	0	0	1
-163.885361	-117.472191	-113.618820	0	0	0	1
-164.709259	-116.609901	-113.776619	0	0	0	1
-165.525467	-115.739418	-113.931999	0	0	0	1
-166.333939	-114.860825	-114.084969	0	0	0	1
-167.134552	-113.974182	-114.235504	0	0	0	1
-167.927231	-113.079590	-114.383621	0	0	0	1
-168.711884	-112.177116	-114.529297	0	0	0	1
-169.488434	-111.266838	-114.672539	0	0	0	1
-170.256790	-110.348854	-114.813324	0	0	0	1
-171.016861	-109.423225	-114.951668	0	0	0	1
-171.768570	-108.490051	-115.087547	0	0	0	1
-172.511856	-107.549408	-115.220970	0	0	0	1
-173.246597	-106.601395	-115.351913	0	0	0	1
-173.972748	-105.646080	-115.480392	0	0	0	1
-174.690201	-104.683563	-115.606392	0	0	0	1
-175.398911	-103.713928	-115.729904	0	0	0	1
-176.098770	-102.737259	-115.850937	0	0	0	1
-176.789703	-101.753662	-115.969467	0	0	0.22720209	0.97384763
-177.471664	-100.763206	-116.085503	0	0	0.22720209	0.97384763
-178.144562	-99.766006	-116.199036	0	0	0.22720209	0.97384763
-178.808304	-98.762138	-116.310066	0	0	0.22720209	0.97384763
-179.462845	-97.751701	-116.418579	0	0	0	1
-180.108109	-96.734802	-116.524574	0	0	0	1
-180.744003	-95.711510	-116.628059	0	0	0	1
-181.370499	-94.681946	-116.729019	0	0	0	1
-181.987488	-93.646187	-116.827446	0	0	0	1
-182.594925	-92.604347	-116.923347	0	0	0	1
-183.192749	-91.556519	-117.016708	0	0	0	1
-183.780869	-90.502800	-117.107529	0	0	0	1
-184.359253	-89.443291	-117.195816	0	0	0	1
-184.927826	-88.378090	-117.281540	0	0	0	1
-185.486511	-87.307304	-117.364738	0	0	0	1
-186.035263	-86.231033	-117.445358	0	0	0	1
-186.574036	-85.149376	-117.523445	0	0	0	1
-187.102737	-84.062439	-117.598961	0	0	0	1
-187.621338	-82.970329	-117.671913	0	0	0	1
-188.129776	-81.873154	-117.742302	0	0	0	1
-188.628006	-80.771004	-117.810127	0	0	0	1
-189.115952	-79.664009	-117.875374	0	0	0	1
-189.593567	-78.552246	-117.938057	0	0	0	1
-190.060822	-77.435852	-117.998161	0	0	0	1
-190.517639	-76.314919	-118.055687	0	0	0	1
-190.963989	-75.189552	-118.110634	0	0	0	1
-191.399826	-74.059868	-118.163002	0	0	0	1
-191.825089	-72.925980	-118.212776	0	0	0	1
-192.239746	-71.787987	-118.259972	0	0	0	1
-192.643753	-70.645996	-118.304573	0	0	0	1
-193.037048	-69.500145	-118.346588	0	0	0	1
-193.419617	-68.350510	-118.386009	0	0	0	1
-193.791412	-67.197235	-118.422836	0	0	0.1288445	0.99166481
-194.152390	-66.040413	-118.457077	0	0	0.1288445	0.99166481
-194.502502	-64.880157	-118.488724	0	0	0.1288445	0.99166481
-194.841736	-63.716591	-118.517769	0	0	0	1
-195.170044	-62.549824	-118.544205	0	0	0	1
-195.487396	-61.379967	-118.568054	0	0	0	1
-195.793762	-60.207134	-118.589287	0	0	0	1
-196.089096	-59.031445	-118.607933	0	0	0	1
-196.373398	-57.853016	-118.623978	0	0	0	1
-196.646606	-56.671951	-118.637413	0	0	0	1
-196.908722	-55.488377	-118.648262	0	0	0	1
-197.087723	-54.641033	-118.655975	0	0	0	1
-197.150131	-54.324753	-118.660301	0	0	0	1
-197.212341	-54.008461	-118.662010	0	0	0	1
-197.274353	-53.692135	-118.661118	0	0	0	1
-197.336166	-53.375751	-118.657623	0	0	0	1
-197.397797	-53.059292	-118.651512	0	0	0	1
-197.459229	-52.742729	-118.642807	0	0	0	1
-197.520477	-52.426044	-118.631500	0	0	0	1
-197.581543	-52.109222	-118.617592	0	0	0	1
-197.642426	-51.792233	-118.601082	0	0	0	1
-197.703140	-51.475056	-118.581978	0	0	0	1
-197.763657	-51.157673	-118.560257	0	0	0	1
-197.824020	-50.840061	-118.535942	0	0	0	1
-197.884186	-50.522198	-118.509026	0	0	0	1
-197.944183	-50.204063	-118.479523	0	0	0	1
-198.003998	-49.885632	-118.447403	0	0	0	1
-198.063629	-49.566887	-118.412704	0	0	0	1
-198.123093	-49.247803	-118.375404	0	0	0	1
-198.182373	-48.928360	-118.335510	0	0	0	1
-198.241455	-48.608532	-118.293030	0	0	0	1
-198.300354	-48.288303	-118.247963	0	0	0	1
-198.359070	-47.967651	-118.200310	0	0	0	1
-198.417587	-47.646549	-118.150063	0	0	0	1
-198.475891	-47.324982	-118.097237	0	0	0	1
-198.534012	-47.002922	-118.041824	0	0	0.029199523	0.9995736
-198.591919	-46.680355	-117.983826	0	0	0.1288445	0.99166481
-198.649612	-46.357250	-117.923271	0	0	0.1288445	0.99166481
-198.707092	-46.033592	-117.860123	0	0	0.1288445	0.99166481
-198.764343	-45.709362	-117.794411	0	0	0.1288445	0.99166481
-198.821350	-45.384529	-117.726135	0	0	0.1288445	0.99166481
-198.878128	-45.059082	-117.655273	0	0	0.1288445	0.99166481
-198.934662	-44.732994	-117.581863	0	0	0.1288445	0.99166481
-198.990952	-44.406246	-117.505890	0	0	0.1288445	0.99166481
-199.046967	-44.078815	-117.427353	0	0	0.1288445	0.99166481
-199.102722	-43.750683	-117.346268	0	0	0.1288445	0.99166481
-199.158188	-43.421829	-117.262619	0	0	0.1288445	0.99166481
-199.213364	-43.092228	-117.176430	0	0	0.1288445	0.99166481
-199.268250	-42.761868	-117.087700	0	0	0.1288445	0.99166481
-199.322830	-42.430721	-116.996414	0	0	0.1288445	0.99166481
-199.377075	-42.098766	-116.902596	0	0	0.1288445	0.99166481
-199.431000	-41.765991	-116.806252	0	0	0.1288445	0.99166481
-199.484589	-41.432369	-116.707359	0	0	0.1288445	0.99166481
-199.537811	-41.097885	-116.605965	0	0	0.1288445	0.99166481
-199.590668	-40.762512	-116.502029	0	0	0.1288445	0.99166481
-199.643143	-40.426239	-116.395584	0	0	0.1288445	0.99166481
-199.695236	-40.089043	-116.286621	0	0	0.1288445	0.99166481
-199.746918	-39.750904	-116.175140	0	0	0.1288445	0.99166481
-199.798187	-39.411808	-116.061157	0	0	0.1288445	0.99166481
-199.849014	-39.071728	-115.944672	0	0	0.1288445	0.99166481
-199.899399	-38.730652	-115.825699	0	0	0.1288445	0.99166481
-199.949326	-38.388557	-115.704231	0	0	0.1288445	0.99166481
-199.998764	-38.045429	-115.580269	0	0	0.1288445	0.99166481
-200.047714	-37.701248	-115.453835	0	0	0.1288445	0.99166481
-200.096146	-37.355999	-115.324913	0	0	0.1288445	0.99166481
-200.144058	-37.009659	-115.193527	0	0	0.1288445	0.99166481
-200.191422	-36.662216	-115.059669	0	0	0.1288445	0.99166481
-200.245392	-36.312607	-114.913010	0	0	0.1288445	0.99166481
-200.310150	-35.960041	-114.747452	0	0	0.1288445	0.99166481
-200.374252	-35.606091	-114.579483	0	0	0.1288445	0.99166481
-200.437668	-35.250740	-114.409103	0	0	0.1288445	0.99166481
-200.500397	-34.893974	-114.236320	0	0	0.1288445	0.99166481
-200.562393	-34.535778	-114.061142	0	0	0.1288445	0.99166481
-200.623657	-34.176140	-113.883568	0	0	0.1288445	0.99166481
-200.684158	-33.815041	-113.703606	0	0	0.1288445	0.99166481
-200.743866	-33.452469	-113.521263	0	0	0.1288445	0.99166481
-200.802765	-33.088413	-113.336555	0	0	0.1288445	0.99166481
-200.860840	-32.722855	-113.149467	0	0	0.1288445	0.99166481
-200.918045	-32.355789	-112.960045	0	0	0.1288445	0.99166481
-200.974380	-31.987192	-112.768257	0	0	0.1288445	0.99166481
-201.029800	-31.617062	-112.574135	0	0	0.1288445	0.99166481
-201.084290	-31.245382	-112.377678	0	0	0.1288445	0.99166481
-201.137817	-30.872141	-112.178894	0	0	0.1288445	0.99166481
-201.190369	-30.497330	-111.977806	0	0	0.1288445	0.99166481
-201.241928	-30.120934	-111.774391	0	0	0.1288445	0.99166481
-201.292435	-29.742945	-111.568680	0	0	0.1288445	0.99166481
-201.341904	-29.363354	-111.360672	0	0	0.1288445	0.99166481
-201.390274	-28.982147	-111.150375	0	0	0.1288445	0.99166481
-201.437531	-28.599319	-110.937805	0	0	0.1288445	0.99166481
-201.483658	-28.214861	-110.722969	0	0	0.1288445	0.99166481
-201.528610	-27.828762	-110.505867	0	0	0.1288445	0.99166481
-201.572372	-27.441015	-110.286522	0	0	0.1288445	0.99166481
-201.614914	-27.051613	-110.064934	0	0	0.1288445	0.99166481
-201.656204	-26.660542	-109.841095	0	0	0.1288445	0.99166481
-201.696213	-26.267803	-109.615044	0	0	0.1288445	0.99166481
-201.734924	-25.873388	-109.386772	0	0	0.1288445	0.99166481
-201.772308	-25.477287	-109.156296	0	0	0.1288445	0.99166481
-201.808319	-25.079498	-108.923615	0	0	0.1288445	0.99166481
-201.842941	-24.680016	-108.688751	0	0	0.1288445	0.99166481
-201.876144	-24.278830	-108.451691	0	0	0.1288445	0.99166481
-201.907883	-23.875942	-108.212486	0	0	0.1288445	0.99166481
-201.938156	-23.471342	-107.971092	0	0	0.1288445	0.99166481
-201.966919	-23.065031	-107.727562	0	0	0.1288445	0.99166481
-201.994125	-22.657005	-107.481888	0	0	0.1288445	0.99166481
-202.019775	-22.247261	-107.234085	0	0	0.1288445	0.99166481
-202.043823	-21.835791	-106.984146	0	0	0.22720209	0.97384763
-202.066238	-21.422604	-106.732117	0	0	0.22720209	0.97384763
-202.086990	-21.007687	-106.477959	0	0	0.22720209	0.97384763
-202.106049	-20.591045	-106.221725	0	0	0.22720209	0.97384763
-202.123383	-20.172676	-105.963402	0	0	0.22720209	0.97384763
-202.138977	-19.752581	-105.703003	0	0	0.22720209	0.97384763
-202.152756	-19.330761	-105.440552	0	0	0.22720209	0.97384763
-202.164734	-18.907211	-105.176041	0	0	0.22720209	0.97384763
-202.174866	-18.481939	-104.909492	0	0	0.22720209	0.97384763
-202.183105	-18.054943	-104.640907	0	0	0.22720209	0.97384763
-202.189438	-17.626223	-104.370300	0	0	0.22720209	0.97384763
-202.193832	-17.195787	-104.097694	0	0	0.22720209	0.97384763
-202.196228	-16.763634	-103.823082	0	0	0.22720209	0.97384763
-202.196640	-16.329767	-103.546478	0	0	0.22720209	0.97384763
-202.194992	-15.894198	-103.267906	0	0	0.22720209	0.97384763
-202.191284	-15.456920	-102.987358	0	0	0.22720209	0.97384763
-202.185455	-15.017942	-102.704865	0	0	0.22720209	0.97384763
-202.177490	-14.577268	-102.420410	0	0	0.22720209	0.97384763
-202.167358	-14.134914	-102.134048	0	0	0.22720209	0.97384763
-202.155029	-13.690872	-101.845749	0	0	0.22720209	0.97384763
-202.140457	-13.245154	-101.555534	0	0	0.22720209	0.97384763
-202.123611	-12.797771	-101.263435	0	0	0.22720209	0.97384763
-202.104477	-12.348729	-100.969437	0	0	0.22720209	0.97384763
-202.082993	-11.898033	-100.673569	0	0	0.22720209	0.97384763
-202.059158	-11.445696	-100.375839	0	0	0.22720209	0.97384763
-202.032913	-10.991725	-100.076256	0	0	0.22720209	0.97384763
-202.004242	-10.536127	-99.774826	0	0	0.22720209	0.97384763
-201.973099	-10.078920	-99.471581	0	0	0.22720209	0.97384763
-201.939453	-9.620105	-99.166504	0	0	0.22720209	0.97384763
-201.903290	-9.159701	-98.859634	0	0	0.22720209	0.97384763
-201.864548	-8.697714	-98.550964	0	0	0.22720209	0.97384763
-201.823212	-8.234160	-98.240524	0	0	0.22720209	0.97384763
-201.779251	-7.769052	-97.928307	0	0	0.22720209	0.97384763
-201.732635	-7.302399	-97.614342	0	0	0.22720209	0.97384763
-201.683319	-6.834221	-97.298622	0	0	0.22720209	0.97384763
-201.631271	-6.364524	-96.981178	0	0	0.22720209	0.97384763
-201.576477	-5.893328	-96.662018	0	0	0.22720209	0.97384763
-201.518875	-5.420651	-96.341156	0	0	0.22720209	0.97384763
-201.458466	-4.946502	-96.018593	0	0	0.22720209	0.97384763
-201.395187	-4.470900	-95.694359	0	0	0.22720209	0.97384763
-201.329025	-3.993859	-95.368446	0	0	0.22720209	0.97384763
-201.259933	-3.515399	-95.040886	0	0	0.22720209	0.97384763
-201.187897	-3.035539	-94.711685	0	0	0.22720209	0.97384763
-201.112869	-2.554293	-94.380852	0	0	0.22720209	0.97384763
-201.034836	-2.071686	-94.048401	0	0	0.22720209	0.97384763
-200.953735	-1.587728	-93.714355	0	0	0.22720209	0.97384763
-200.869568	-1.102447	-93.378716	0	0	0.22720209	0.97384763
-200.782288	-0.615857	-93.041504	0	0	0.22720209	0.97384763
-200.691864	-0.127982	-92.702721	0	0	0.22720209	0.97384763
-200.598267	0.361158	-92.362396	0	0	0.22720209	0.97384763
-200.501465	0.851541	-92.020538	0	0	0.22720209	0.97384763
-200.401413	1.343145	-91.677155	0	0	0.22720209	0.97384763
-200.298111	1.835951	-91.332260	0	0	0.22720209	0.97384763
-200.191498	2.329931	-90.985870	0	0	0.22720209	0.97384763
-200.081573	2.825066	-90.638000	0	0	0.22720209	0.97384763
-199.968277	3.321326	-90.288666	0	0	0.22720209	0.97384763
-199.851608	3.818693	-89.937881	0	0	0.22720209	0.97384763
-199.731506	4.317141	-89.585648	0	0	0.22720209	0.97384763
-199.607956	4.816638	-89.231987	0	0	0.22720209	0.97384763
-199.480942	5.317168	-88.876915	0	0	0.22720209	0.97384763
-199.350418	5.818699	-88.520454	0	0	0.22720209	0.97384763
-199.216354	6.321204	-88.162598	0	0	0.22720209	0.97384763
-199.078735	6.824660	-87.803375	0	0	0.22720209	0.97384763
-198.937515	7.329032	-87.442802	0	0	0.22720209	0.97384763
-198.792679	7.834300	-87.080879	0	0	0.22720209	0.97384763
-198.644196	8.340431	-86.717636	0	0	0.22720209	0.97384763
-198.492035	8.847393	-86.353081	0	0	0.22720209	0.97384763
-198.336166	9.355165	-85.987221	0	0	0.22720209	0.97384763
-198.176575	9.863709	-85.620079	0	0	0.22720209	0.97384763
-198.013214	10.372999	-85.251671	0	0	0.22720209	0.97384763
-197.846085	10.883004	-84.882004	0	0	0.22720209	0.97384763
-197.675140	11.393687	-84.511101	0	0	0.22720209	0.97384763
-197.500351	11.905025	-84.138969	0	0	0.22720209	0.97384763
-197.321701	12.416981	-83.765617	0	0	0.22720209	0.97384763
-197.139175	12.929520	-83.391083	0	0	0.22720209	0.97384763
-196.952728	13.442615	-83.015358	0	0	0.22720209	0.97384763
-196.762344	13.956227	-82.638466	0	0	0.22720209	0.97384763
-196.567993	14.470328	-82.260429	0	0	0.22720209	0.97384763
-196.369659	14.984876	-81.881256	0	0	0.22720209	0.97384763
-196.167313	15.499842	-81.500954	0	0	0.22720209	0.97384763
-195.960938	16.015188	-81.119545	0	0	0.22720209	0.97384763
-195.750504	16.530880	-80.737053	0	0	0.22720209	0.97384763
-195.535980	17.046885	-80.353477	0	0	0.22720209	0.97384763
-195.317368	17.563158	-79.968842	0	0	0.22720209	0.97384763
-195.094635	18.079674	-79.583153	0	0	0.22720209	0.97384763
-194.867737	18.596384	-79.196449	0	0	0.22720209	0.97384763
-194.636688	19.113258	-78.808716	0	0	0.22720209	0.97384763
-194.401443	19.630255	-78.419983	0	0	0.22720209	0.97384763
-194.161987	20.147341	-78.030266	0	0	0.22720209	0.97384763
-193.918304	20.664473	-77.639580	0	0	0.22720209	0.97384763
-193.670380	21.181610	-77.247940	0	0	0.22720209	0.97384763
-193.418182	21.698715	-76.855362	0	0	0.22720209	0.97384763
-193.161697	22.215748	-76.461861	0	0	0.22720209	0.97384763
-192.900909	22.732672	-76.067444	0	0	0.22720209	0.97384763
-192.635803	23.249445	-75.672142	0	0	0.22720209	0.97384763
-192.366348	23.766022	-75.275970	0	0	0.22720209	0.97384763
-192.092529	24.282366	-74.878922	0	0	0.22720209	0.97384763
-191.814346	24.798433	-74.481041	0	0	0.22720209	0.97384763
-191.531769	25.314184	-74.082321	0	0	0.22720209	0.97384763
-191.244781	25.829578	-73.682785	0	0	0.22720209	0.97384763
-190.953369	26.344564	-73.282455	0	0	0.22720209	0.97384763
-190.657516	26.859112	-72.881348	0	0	0.22720209	0.97384763
-190.357224	27.373163	-72.479469	0	0	0.22720209	0.97384763
-190.052444	27.886690	-72.076836	0	0	0.22720209	0.97384763
-189.743195	28.399635	-71.673470	0	0	0.22720209	0.97384763
-189.429459	28.911963	-71.269394	0	0	0.22720209	0.97384763
-189.111206	29.423628	-70.864601	0	0	0.22720209	0.97384763
-188.788437	29.934584	-70.459129	0	0	0.22720209	0.97384763
-188.461136	30.444784	-70.052986	0	0	0.22720209	0.97384763
-188.129303	30.954189	-69.646187	0	0	0.22720209	0.97384763
-187.792908	31.462749	-69.238747	0	0	0.22720209	0.97384763
-187.451965	31.970411	-68.830688	0	0	0.22720209	0.97384763
-187.106430	32.477150	-68.422020	0	0	0.22720209	0.97384763
-186.756332	32.982899	-68.012756	0	0	0.22720209	0.97384763
-186.401627	33.487617	-67.602928	0	0	0.22720209	0.97384763
-186.042343	33.991261	-67.192535	0	0	0.22720209	0.97384763
-185.678436	34.493786	-66.781609	0	0	0.22720209	0.97384763
-185.309921	34.995136	-66.370148	0	0	0.22720209	0.97384763
-184.936798	35.495274	-65.958176	0	0	0.22720209	0.97384763
-184.559036	35.994144	-65.545715	0	0	0.22720209	0.97384763
-184.176651	36.491703	-65.132774	0	0	0.22720209	0.97384763
-183.789627	36.987900	-64.719376	0	0	0.22720209	0.97384763
-183.397964	37.482689	-64.305534	0	0	0.22720209	0.97384763
-183.001648	37.976017	-63.891254	0	0	0.22720209	0.97384763
-182.600693	38.467842	-63.476570	0	0	0.22720209	0.97384763
-182.195084	38.958115	-63.061493	0	0	0.22720209	0.97384763
-181.784821	39.446777	-62.646030	0	0	0.22720209	0.97384763
-181.369904	39.933792	-62.230213	0	0	0.22720209	0.97384763
-180.950333	40.419102	-61.814041	0	0	0.22720209	0.97384763
-180.526108	40.902664	-61.397545	0	0	0.22720209	0.97384763
-180.097229	41.384418	-60.980732	0	0	0.22720209	0.97384763
-179.663681	41.864323	-60.563625	0	0	0.22720209	0.97384763
-179.225494	42.342327	-60.146236	0	0	0.22720209	0.97384763
-178.782639	42.818386	-59.728588	0	0	0.22720209	0.97384763
-178.335144	43.292435	-59.310684	0	0	0.22720209	0.97384763
-177.883011	43.764442	-58.892559	0	0	0.22720209	0.97384763
-177.426208	44.234341	-58.474213	0	0	0.22720209	0.97384763
-176.964783	44.702091	-58.055672	0	0	0.22720209	0.97384763
-176.498718	45.167637	-57.636944	0	0	0.22720209	0.97384763
-176.028030	45.630928	-57.218060	0	0	0.22720209	0.97384763
-175.552704	46.091919	-56.799019	0	0	0.22720209	0.97384763
-175.072769	46.550556	-56.379852	0	0	0.22720209	0.97384763
-174.588211	47.006786	-55.960564	0	0	0.22720209	0.97384763
-174.099060	47.460560	-55.541180	0	0	0.22720209	0.97384763
-173.605316	47.911827	-55.121716	0	0	0.22720209	0.97384763
-173.106979	48.360535	-54.702183	0	0	0.22720209	0.97384763
-172.604065	48.806637	-54.282604	0	0	0.22720209	0.97384763
-172.096588	49.250080	-53.862999	0	0	0.22720209	0.97384763
-171.584549	49.690811	-53.443371	0	0	0.22720209	0.97384763
-171.067963	50.128777	-53.023743	0	0	0.1288445	0.99166481
-170.546844	50.563938	-52.604134	0	0	0.1288445	0.99166481
-170.021210	50.996227	-52.184551	0	0	0.1288445	0.99166481
-169.491058	51.425606	-51.765026	0	0	0.1288445	0.99166481
-168.956406	51.852016	-51.345566	0	0	0.1288445	0.99166481
-168.417282	52.275414	-50.926193	0	0	0.1288445	0.99166481
-167.873688	52.695744	-50.506924	0	0	0.1288445	0.99166481
-167.325653	53.112949	-50.087757	0	0	0.1288445	0.99166481
-166.773178	53.526997	-49.668739	0	0	0.1288445	0.99166481
-166.216278	53.937817	-49.249866	0	0	0.1288445	0.99166481
-165.654984	54.345367	-48.831154	0	0	0.1288445	0.99166481
-165.089294	54.749599	-48.412628	0	0	0.1288445	0.99166481
-164.519257	55.150455	-47.994297	0	0	0.1288445	0.99166481
-163.944855	55.547890	-47.576183	0	0	0.1288445	0.99166481
-163.366150	55.941853	-47.158302	0	0	0.1288445	0.99166481
-162.783127	56.332294	-46.740673	0	0	0.1288445	0.99166481
-162.195816	56.719162	-46.323311	0	0	0.1288445	0.99166481
-161.604233	57.102409	-45.906231	0	0	0.1288445	0.99166481
-161.008423	57.481979	-45.489445	0	0	0.1288445	0.99166481
-160.408386	57.857830	-45.072975	0	0	0.1288445	0.99166481
-159.804153	58.229908	-44.656830	0	0	0.1288445	0.99166481
-159.195755	58.598164	-44.241043	0	0	0.1288445	0.99166481
-158.583206	58.962547	-43.825611	0	0	0.1288445	0.99166481
-157.966537	59.323013	-43.410564	0	0	0.1288445	0.99166481
-157.345764	59.679508	-42.995914	0	0	0.1288445	0.99166481
-156.720932	60.031982	-42.581676	0	0	0.1288445	0.99166481
-156.092041	60.380394	-42.167870	0	0	0.1288445	0.99166481
-155.459152	60.724693	-41.754513	0	0	0.1288445	0.99166481
-154.822266	61.064823	-41.341614	0	0	0.1288445	0.99166481
-154.181412	61.400745	-40.929192	0	0	0.1288445	0.99166481
-153.536636	61.732407	-40.517265	0	0	0.1288445	0.99166481
-152.887970	62.059761	-40.105850	0	0	0.1288445	0.99166481
-152.235413	62.382759	-39.694954	0	0	0.1288445	0.99166481
-151.579025	62.701363	-39.284618	0	0	0.1288445	0.99166481
-150.918839	63.015507	-38.874828	0	0	0.1288445	0.99166481
-150.254868	63.325165	-38.465618	0	0	0.1288445	0.99166481
-149.587158	63.630280	-38.057007	0	0	0.1288445	0.99166481
-148.915741	63.930805	-37.648991	0	0	0.1288445	0.99166481
-148.240646	64.226700	-37.241611	0	0	0.1288445	0.99166481
-147.561905	64.517914	-36.834866	0	0	0.1288445	0.99166481
-146.879562	64.804405	-36.428780	0	0	0.1288445	0.99166481
-146.193649	65.086121	-36.023361	0	0	0.1288445	0.99166481
-145.504196	65.363029	-35.618633	0	0	0.1288445	0.99166481
-144.811264	65.635078	-35.214607	0	0	0.1288445	0.99166481
-144.114853	65.902222	-34.811310	0	0	0.1288445	0.99166481
-143.415024	66.164421	-34.408737	0	0	0.1288445	0.99166481
-142.711823	66.421631	-34.006924	0	0	0.1288445	0.99166481
-142.005264	66.673805	-33.605885	0	0	0.1288445	0.99166481
-141.295410	66.920906	-33.205616	0	0	0.1288445	0.99166481
-140.582275	67.162888	-32.806156	0	0	0.1288445	0.99166481
-139.865921	67.399712	-32.407509	0	0	0.1288445	0.99166481
-139.146393	67.631332	-32.009693	0	0	0.1288445	0.99166481
-138.423721	67.857712	-31.612724	0	0	0.1288445	0.99166481
-137.697937	68.078804	-31.216618	0	0	0.1288445	0.99166481
-136.969101	68.294571	-30.821384	0	0	0.1288445	0.99166481
-136.237259	68.504974	-30.427048	0	0	0.1288445	0.99166481
-135.502441	68.709976	-30.033625	0	0	0.1288445	0.99166481
-134.764694	68.909531	-29.641125	0	0	0.1288445	0.99166481
-134.024078	69.103600	-29.249563	0	0	0.1288445	0.99166481
-133.280609	69.292152	-28.858963	0	0	0.1288445	0.99166481
-132.534363	69.475143	-28.469326	0	0	0.1288445	0.99166481
-131.785370	69.652534	-28.080683	0	0	0.1288445	0.99166481
-131.033676	69.824295	-27.693039	0	0	0.1288445	0.99166481
-130.279327	69.990387	-27.306416	0	0	0.1288445	0.99166481
-129.522385	70.150757	-26.920815	0	0	0.1288445	0.99166481
-128.762878	70.305397	-26.536264	0	0	0.1288445	0.99166481
-128.000870	70.454247	-26.152782	0	0	0.029199523	0.9995736
-127.236412	70.597290	-25.770376	0	0	0.029199523	0.9995736
-126.469543	70.734482	-25.389067	0	0	0.029199523	0.9995736
-125.700317	70.865799	-25.008865	0	0	0.029199523	0.9995736
-124.928787	70.991188	-24.629784	0	0	0.029199523	0.9995736
-124.154999	71.110634	-24.251842	0	0	0.029199523	0.9995736
-123.379005	71.224091	-23.875053	0	0	0.029199523	0.9995736
-122.600861	71.331535	-23.499422	0	0	0.029199523	0.9995736
-121.820610	71.432945	-23.124992	0	0	0.029199523	0.9995736
-121.038322	71.528259	-22.751743	0	0	0.029199523	0.9995736
-120.254028	71.617477	-22.379713	0	0	0.029199523	0.9995736
-119.467804	71.700554	-22.008913	0	0	0.029199523	0.9995736
-118.679688	71.777466	-21.639351	0	0	0.029199523	0.9995736
-117.889740	71.848183	-21.271055	0	0	0.029199523	0.9995736
-117.098007	71.912674	-20.904016	0	0	0.029199523	0.9995736
-116.304558	71.970909	-20.538275	0	0	0.029199523	0.9995736
-115.509445	72.022865	-20.173824	0	0	0.029199523	0.9995736
-114.712715	72.068512	-19.810686	0	0	0.029199523	0.9995736
-113.914429	72.107834	-19.448877	0	0	0.029199523	0.9995736
-113.114647	72.140793	-19.088417	0	0	0.029199523	0.9995736
-112.313423	72.167366	-18.729311	0	0	0.029199523	0.9995736
-111.510811	72.187531	-18.371578	0	0	0.029199523	0.9995736
-110.706871	72.201271	-18.015234	0	0	0.029199523	0.9995736
-109.901665	72.208549	-17.660276	0	0	0.029199523	0.9995736
-109.095245	72.209351	-17.306744	0	0	0.029199523	0.9995736
-108.287682	72.203644	-16.954632	0	0	0.029199523	0.9995736
-107.479012	72.191422	-16.603966	0	0	0.029199523	0.9995736
-106.669319	72.172661	-16.254753	0	0	0.029199523	0.9995736
-105.858650	72.147331	-15.907009	0	0	0.029199523	0.9995736
-105.047066	72.115410	-15.560741	0	0	0.029199523	0.9995736
-104.234627	72.076904	-15.215983	0	0	0.029199523	0.9995736
-103.421394	72.031761	-14.872722	0	0	0.029199523	0.9995736
-102.607430	71.979988	-14.530991	0	0	0.029199523	0.9995736
-101.792793	71.921555	-14.190797	0	0	0.029199523	0.9995736
-100.977547	71.856445	-13.852155	0	0	0.029199523	0.9995736
-100.161751	71.784653	-13.515067	0	0	0.029199523	0.9995736
-99.345467	71.706154	-13.179571	0	0	0.029199523	0.9995736
-98.528755	71.620926	-12.845650	0	0	0.029199523	0.9995736
-97.711685	71.528984	-12.513346	0	0	0.029199523	0.9995736
-96.894310	71.430275	-12.182645	0	0	0.029199523	0.9995736
-96.076706	71.324814	-11.853580	0	0	0.029199523	0.9995736
-95.258926	71.212585	-11.526166	0	0	0.029199523	0.9995736
-94.441025	71.093567	-11.200394	0	0	0.029199523	0.9995736
-93.623085	70.967758	-10.876298	0	0	0.029199523	0.9995736
-92.805161	70.835136	-10.553881	0	0	0.029199523	0.9995736
-91.987312	70.695709	-10.233154	0	0	0.029199523	0.9995736
-91.169609	70.549454	-9.914142	0	0	0.029199523	0.9995736
-90.352112	70.396370	-9.596845	0	0	0.029199523	0.9995736
-89.534889	70.236443	-9.281277	0	0	0.029199523	0.9995736
-88.718010	70.069672	-8.967459	0	0	0.029199523	0.9995736
-89.060020	69.267952	-7.891985	0	0	0.029199523	0.9995736
-89.580963	68.323326	-6.669343	0	0	0.029199523	0.9995736
-90.075500	67.342751	-5.432168	0	0	0.029199523	0.9995736
-90.541718	66.326118	-4.181685	0	0	0.029199523	0.9995736
-90.977707	65.273338	-2.919129	0	0	0.029199523	0.9995736
-91.381554	64.184502	-1.645904	0	0	0.029199523	0.9995736
-91.751350	63.059784	-0.363500	0	0	0	1
-92.085220	61.899487	0.926511	0	0	0.029199523	0.9995736
-92.381294	60.704033	2.222460	0	0	0.029199523	0.9995736
-92.637787	59.473988	3.522577	0	0	0.029199523	0.9995736
-92.852928	58.210056	4.825015	0	0	0	1
-93.025047	56.913055	6.127857	0	0	0	1
-93.152542	55.583996	7.429075	0	0	0	1
-93.233902	54.223957	8.726637	0	0	0.1288445	0.99166481
-93.267723	52.834248	10.018388	0	0	0.1288445	0.99166481
-93.252739	51.416237	11.302183	0	0	0.1288445	0.99166481
-93.187775	49.971500	12.575792	0	0	0	1
-93.071846	48.501705	13.836998	0	0	0	1
-97.554375	51.252064	14.428913	0	0	0	1
-107.800461	59.021259	14.428906	0	0	0	1
-120.868561	68.930260	14.428910	0	0	0.1288445	0.99166481
-138.112274	82.005455	14.428911	0	0	0.1288445	0.99166481
-161.915543	100.054512	14.428911	0	0	0.1288445	0.99166481
-196.904297	126.585060	14.428902	0	0	0.1288445	0.99166481
-253.389633	169.415588	14.428896	0	0	0	1
-359.979095	250.238007	14.428907	0	0	0.1288445	0.99166481
141.138	16.7694	-53.018	0.0	0.0	-0.87758192579	0.479426702976	
