181.417191	-294.182007	-161.523987	0	0	0	1
86.914185	-166.905014	-50.518730	0	0	0	1
59.490925	-130.375916	-18.532286	0	0	0	1
56.653526	-127.831017	-15.919560	0	0	0	1
53.896843	-125.320602	-13.362832	0	0	0	1
51.222630	-122.849869	-10.865470	0	0	0	1
48.631779	-120.422913	-8.429886	0	0	0	1
46.123981	-118.042213	-6.057129	0	0	0	1
43.699142	-115.710648	-3.748549	0	0	0	1
41.356281	-113.429787	-1.504419	0	0	0	1
39.094738	-111.201775	0.674540	0	0	0	1
36.912800	-109.027145	2.788906	0	0	0	1
34.808647	-106.906166	4.839435	0	0	0	1
32.780769	-104.839630	6.826485	0	0	0	1
30.827337	-102.827736	8.750845	0	0	0	1
28.945959	-100.869720	10.614052	0	0	0	1
27.134550	-98.965240	12.417289	0	0	0	1
25.390997	-97.113770	14.161836	0	0	0	1
23.712978	-95.314415	15.849257	0	0	0	1
22.098379	-93.566475	17.480927	0	0	0	1
20.544779	-91.868645	19.058655	0	0	0	1
19.050098	-90.220070	20.583858	0	0	0	1
17.612040	-88.619423	22.058308	0	0	0	1
16.925655	-88.382286	22.440351	0	0	0.85688874	0.51550139
16.734352	-89.080154	22.079344	0	0	0.85688874	0.51550139
16.536121	-89.779121	21.717649	0	0	0.85688874	0.51550139
16.330923	-90.479103	21.355286	0	0	0.85688874	0.51550139
16.118731	-91.180031	20.992268	0	0	0.85688874	0.51550139
15.899503	-91.881828	20.628613	0	0	0.85688874	0.51550139
15.673207	-92.584412	20.264334	0	0	0.85688874	0.51550139
15.439814	-93.287704	19.899437	0	0	0.85688874	0.51550139
15.199292	-93.991638	19.533941	0	0	0.85688874	0.51550139
14.951612	-94.696121	19.167870	0	0	0	1
14.696743	-95.401077	18.801220	0	0	0	1
14.434660	-96.106430	18.434034	0	0	0	1
14.165328	-96.812096	18.066298	0	0	0	1
13.888732	-97.517998	17.698032	0	0	0	1
13.604836	-98.224045	17.329273	0	0	0	1
13.313622	-98.930168	16.959999	0	0	0	1
13.015058	-99.636276	16.590260	0	0	0	1
12.709133	-100.342285	16.220043	0	0	0	1
12.395817	-101.048111	15.849373	0	0	0	1
12.075093	-101.753677	15.478273	0	0	0	1
11.746942	-102.458900	15.106752	0	0	0	1
11.411345	-103.163696	14.734817	0	0	0	1
11.068284	-103.867958	14.362495	0	0	0	1
10.717741	-104.571632	13.989788	0	0	0	1
10.359698	-105.274612	13.616712	0	0	0	1
9.994150	-105.976822	13.243302	0	0	0	1
9.621075	-106.678162	12.869546	0	0	0	1
9.240462	-107.378571	12.495478	0	0	0	1
8.852304	-108.077942	12.121107	0	0	0	1
8.456585	-108.776184	11.746431	0	0	0	1
8.053298	-109.473221	11.371490	0	0	0	1
7.642436	-110.168968	10.996292	0	0	0	1
7.223988	-110.863327	10.620840	0	0	0.80114363	0.59847213
6.797953	-111.556221	10.245167	0	0	0.80114363	0.59847213
6.364326	-112.247551	9.869273	0	0	0.80114363	0.59847213
5.923098	-112.937233	9.493169	0	0	0.80114363	0.59847213
5.474266	-113.625175	9.116880	0	0	0.80114363	0.59847213
5.017835	-114.311287	8.740437	0	0	0.80114363	0.59847213
4.553801	-114.995491	8.363817	0	0	0	1
4.082159	-115.677681	7.987077	0	0	0	1
3.602917	-116.357788	7.610197	0	0	0	1
3.116075	-117.035706	7.233209	0	0	0	1
2.621636	-117.711342	6.856118	0	0	0	1
2.119608	-118.384628	6.478943	0	0	0	1
1.609989	-119.055450	6.101710	0	0	0	1
1.092794	-119.723740	5.724411	0	0	0	1
0.568031	-120.389389	5.347086	0	0	0	1
0.035701	-121.052315	4.969734	0	0	0	1
-0.504178	-121.712425	4.592375	0	0	0	1
-1.051596	-122.369637	4.215031	0	0	0	1
-1.606546	-123.023857	3.837711	0	0	0	1
-2.169008	-123.674980	3.460414	0	0	0	1
-2.738973	-124.322945	3.083177	0	0	0	1
-3.316420	-124.967636	2.705996	0	0	0	1
-3.901336	-125.608978	2.328902	0	0	0	1
-4.493701	-126.246872	1.951913	0	0	0	1
-5.093497	-126.881233	1.575026	0	0	0	1
-5.700703	-127.511971	1.198276	0	0	0	1
-6.315299	-128.138992	0.821651	0	0	0	1
-6.937263	-128.762222	0.445198	0	0	0	1
-7.566571	-129.381546	0.068907	0	0	0	1
-8.203197	-129.996902	-0.307194	0	0	0	1
-8.847116	-130.608170	-0.683092	0	0	0	1
-9.498302	-131.215286	-1.058784	0	0	0	1
-10.156730	-131.818161	-1.434249	0	0	0.73739371	0.67546319
-10.822365	-132.416687	-1.809460	0	0	0.73739371	0.67546319
-11.495182	-133.010803	-2.184409	0	0	0.73739371	0.67546319
-12.175146	-133.600388	-2.559092	0	0	0	1
-12.862227	-134.185379	-2.933475	0	0	0	1
-13.556393	-134.765671	-3.307557	0	0	0	1
-14.257606	-135.341202	-3.681330	0	0	0	1
-14.965835	-135.911865	-4.054753	0	0	0	1
-15.681041	-136.477570	-4.427831	0	0	0	1
-16.403185	-137.038254	-4.800560	0	0	0	1
-17.132227	-137.593796	-5.172895	0	0	0	1
-17.868132	-138.144135	-5.544849	0	0	0	1
-18.610857	-138.689178	-5.916393	0	0	0	1
-19.360361	-139.228851	-6.287511	0	0	0	1
-20.116598	-139.763046	-6.658192	0	0	0	1
-20.879526	-140.291702	-7.028424	0	0	0	1
-21.649101	-140.814728	-7.398180	0	0	0	1
-22.425276	-141.332031	-7.767476	0	0	0	1
-23.208000	-141.843536	-8.136254	0	0	0	1
-23.997231	-142.349152	-8.504539	0	0	0	1
-24.792915	-142.848816	-8.872300	0	0	0	1
-25.595003	-143.342438	-9.239509	0	0	0	1
-26.403442	-143.829926	-9.606174	0	0	0	1
-27.218185	-144.311203	-9.972270	0	0	0	1
-28.039173	-144.786194	-10.337788	0	0	0	1
-28.866354	-145.254807	-10.702703	0	0	0	1
-29.699673	-145.716980	-11.067009	0	0	0	1
-30.539068	-146.172638	-11.430681	0	0	0	1
-31.384491	-146.621674	-11.793726	0	0	0	1
-32.235874	-147.064041	-12.156116	0	0	0	1
-33.093170	-147.499649	-12.517835	0	0	0	1
-33.956303	-147.928406	-12.878874	0	0	0.66627604	0.74570519
-34.825222	-148.350281	-13.239213	0	0	0.66627604	0.74570519
-35.699863	-148.765152	-13.598833	0	0	0	1
-36.580162	-149.172974	-13.957738	0	0	0	1
-37.466053	-149.573639	-14.315905	0	0	0	1
-38.357471	-149.967117	-14.673323	0	0	0	1
-39.254349	-150.353317	-15.029954	0	0	0	1
-40.156631	-150.732147	-15.385809	0	0	0	1
-41.064232	-151.103577	-15.740872	0	0	0	1
-41.977093	-151.467499	-16.095133	0	0	0	1
-42.895142	-151.823868	-16.448565	0	0	0	1
-43.818306	-152.172592	-16.801163	0	0	0	1
-44.746521	-152.513626	-17.152901	0	0	0	1
-45.679703	-152.846893	-17.503778	0	0	0	1
-46.617790	-153.172318	-17.853773	0	0	0	1
-47.560699	-153.489853	-18.202871	0	0	0	1
-48.508362	-153.799408	-18.551071	0	0	0	1
-49.460701	-154.100952	-18.898342	0	0	0	1
-50.417633	-154.394394	-19.244677	0	0	0	1
-51.379093	-154.679672	-19.590073	0	0	0	1
-52.344986	-154.956741	-19.934502	0	0	0	1
-53.315247	-155.225525	-20.277966	0	0	0	1
-54.289791	-155.485977	-20.620420	0	0	0	1
-55.268532	-155.738037	-20.961889	0	0	0	1
-56.251396	-155.981628	-21.302334	0	0	0	1
-57.238300	-156.216690	-21.641750	0	0	0	1
-58.229160	-156.443207	-21.980127	0	0	0	1
-59.223885	-156.661072	-22.317444	0	0	0	1
-60.222401	-156.870270	-22.653696	0	0	0	1
-61.224621	-157.070740	-22.988857	0	0	0	1
-62.230450	-157.262405	-23.322935	0	0	0	1
-63.239811	-157.445221	-23.655891	0	0	0	1
-64.252609	-157.619156	-23.987734	0	0	0.58850112	0.8084964
-65.268761	-157.784149	-24.318430	0	0	0	1
-66.288177	-157.940140	-24.647993	0	0	0	1
-67.310768	-158.087097	-24.976385	0	0	0	1
-68.336441	-158.224960	-25.303602	0	0	0	1
-69.365112	-158.353699	-25.629622	0	0	0	1
-70.396683	-158.473251	-25.954466	0	0	0	1
-71.431061	-158.583572	-26.278074	0	0	0	1
-72.468155	-158.684631	-26.600475	0	0	0	1
-73.507881	-158.776382	-26.921627	0	0	0	1
-74.550133	-158.858780	-27.241531	0	0	0	1
-75.594818	-158.931778	-27.560167	0	0	0	1
-76.641846	-158.995361	-27.877529	0	0	0	1
-77.691124	-159.049454	-28.193596	0	0	0	1
-78.742554	-159.094055	-28.508377	0	0	0	1
-79.796028	-159.129105	-28.821825	0	0	0	1
-80.851456	-159.154572	-29.133963	0	0	0	1
-81.908752	-159.170441	-29.444757	0	0	0	1
-82.967804	-159.176651	-29.754194	0	0	0	1
-84.028511	-159.173187	-30.062275	0	0	0	1
-85.090790	-159.160019	-30.368980	0	0	0	1
-86.154533	-159.137131	-30.674290	0	0	0	1
-87.219635	-159.104446	-30.978214	0	0	0	1
-88.286003	-159.061996	-31.280716	0	0	0	1
-89.353539	-159.009720	-31.581793	0	0	0	1
-90.422127	-158.947586	-31.881441	0	0	0	1
-91.491684	-158.875595	-32.179638	0	0	0	1
-92.562096	-158.793716	-32.476379	0	0	0	1
-93.633270	-158.701920	-32.771645	0	0	0	1
-94.705093	-158.600189	-33.065445	0	0	0	1
-95.777466	-158.488510	-33.357735	0	0	0	1
-96.850288	-158.366867	-33.648514	0	0	0.50484609	0.86320938
-97.923462	-158.235229	-33.937790	0	0	0	1
-98.996864	-158.093582	-34.225529	0	0	0	1
-100.070412	-157.941925	-34.511742	0	0	0	1
-101.143990	-157.780228	-34.796391	0	0	0	1
-102.217499	-157.608505	-35.079479	0	0	0	1
-103.290833	-157.426712	-35.360996	0	0	0	1
-104.363884	-157.234848	-35.640938	0	0	0	1
-105.436554	-157.032913	-35.919270	0	0	0	1
-106.508720	-156.820908	-36.195999	0	0	0	1
-107.580299	-156.598801	-36.471119	0	0	0	1
-108.651176	-156.366608	-36.744598	0	0	0	1
-109.721237	-156.124313	-37.016441	0	0	0	1
-110.790398	-155.871918	-37.286644	0	0	0	1
-111.858528	-155.609421	-37.555176	0	0	0	1
-112.925537	-155.336823	-37.822037	0	0	0	1
-113.991310	-155.054108	-38.087223	0	0	0	1
-115.055733	-154.761307	-38.350712	0	0	0	1
-116.118729	-154.458405	-38.612507	0	0	0	1
-117.180176	-154.145416	-38.872581	0	0	0	1
-118.239952	-153.822327	-39.130932	0	0	0	1
-119.297966	-153.489166	-39.387550	0	0	0	1
-120.354118	-153.145935	-39.642429	0	0	0	1
-121.408287	-152.792633	-39.895546	0	0	0	1
-122.460381	-152.429276	-40.146908	0	0	0	1
-123.510277	-152.055893	-40.396496	0	0	0	1
-124.557877	-151.672470	-40.644291	0	0	0	1
-125.603065	-151.279022	-40.890308	0	0	0	1
-126.645767	-150.875595	-41.134510	0	0	0	1
-127.685844	-150.462173	-41.376904	0	0	0	1
-128.723190	-150.038788	-41.617481	0	0	0	1
-129.757736	-149.605453	-41.856220	0	0	0.41614682	0.90929743
-130.789322	-149.162186	-42.093117	0	0	0.41614682	0.90929743
-131.817886	-148.709030	-42.328167	0	0	0	1
-132.843307	-148.245972	-42.561363	0	0	0	1
-133.865479	-147.773071	-42.792671	0	0	0	1
-134.884308	-147.290329	-43.022129	0	0	0	1
-135.899673	-146.797775	-43.249683	0	0	0	1
-136.911484	-146.295441	-43.475346	0	0	0	1
-137.919617	-145.783356	-43.699100	0	0	0	1
-138.923981	-145.261551	-43.920940	0	0	0	1
-139.924484	-144.730057	-44.140854	0	0	0	1
-140.920990	-144.188889	-44.358852	0	0	0	1
-141.913437	-143.638107	-44.574898	0	0	0	1
-142.901688	-143.077728	-44.788990	0	0	0	1
-143.885666	-142.507782	-45.001137	0	0	0	1
-144.865250	-141.928329	-45.211323	0	0	0	1
-145.840347	-141.339386	-45.419521	0	0	0	1
-146.810852	-140.741013	-45.625751	0	0	0	1
-147.776657	-140.133224	-45.829990	0	0	0	1
-148.737686	-139.516068	-46.032227	0	0	0	1
-149.693817	-138.889603	-46.232456	0	0	0	1
-150.644958	-138.253845	-46.430679	0	0	0	1
-151.591003	-137.608887	-46.626873	0	0	0	1
-152.531860	-136.954727	-46.821033	0	0	0	1
-153.467422	-136.291428	-47.013168	0	0	0	1
-154.397614	-135.619034	-47.203251	0	0	0	1
-155.322311	-134.937607	-47.391289	0	0	0	1
-156.241425	-134.247192	-47.577263	0	0	0	1
-157.154861	-133.547852	-47.761162	0	0	0	1
-158.062531	-132.839600	-47.943001	0	0	0	1
-158.964340	-132.122528	-48.122753	0	0	0	1
-159.860184	-131.396683	-48.300415	0	0	0.32328956	0.94630009
-160.749954	-130.662125	-48.475990	0	0	0.32328956	0.94630009
-161.633575	-129.918884	-48.649452	0	0	0.32328956	0.94630009
-162.510956	-129.167053	-48.820812	0	0	0	1
-163.382019	-128.406662	-48.990047	0	0	0	1
-164.246643	-127.637802	-49.157169	0	0	0	1
-165.104752	-126.860504	-49.322159	0	0	0	1
-165.956238	-126.074844	-49.485016	0	0	0	1
-166.801025	-125.280891	-49.645729	0	0	0	1
-167.639038	-124.478699	-49.804295	0	0	0	1
-168.470169	-123.668335	-49.960705	0	0	0	1
-169.294342	-122.849884	-50.114944	0	0	0	1
-170.111450	-122.023384	-50.267029	0	0	0	1
-170.921432	-121.188919	-50.416939	0	0	0	1
-171.724167	-120.346558	-50.564671	0	0	0	1
-172.519623	-119.496368	-50.710217	0	0	0	1
-173.307663	-118.638428	-50.853577	0	0	0	1
-174.088242	-117.772812	-50.994724	0	0	0	1
-174.861267	-116.899567	-51.133686	0	0	0	1
-175.626648	-116.018799	-51.270439	0	0	0	1
-176.384308	-115.130569	-51.404972	0	0	0	1
-177.134171	-114.234955	-51.537289	0	0	0	1
-177.876129	-113.332031	-51.667393	0	0	0	1
-178.610168	-112.421875	-51.795254	0	0	0	1
-179.336136	-111.504585	-51.920898	0	0	0	1
-180.054016	-110.580208	-52.044292	0	0	0	1
-180.763687	-109.648849	-52.165443	0	0	0	1
-181.465103	-108.710587	-52.284351	0	0	0	1
-182.158203	-107.765495	-52.401001	0	0	0	1
-182.842865	-106.813652	-52.515396	0	0	0	1
-183.519043	-105.855164	-52.627537	0	0	0	1
-184.186691	-104.890099	-52.737400	0	0	0.22720209	0.97384763
-184.845688	-103.918541	-52.845001	0	0	0.22720209	0.97384763
-185.496002	-102.940582	-52.950325	0	0	0.22720209	0.97384763
-186.137558	-101.956306	-53.053371	0	0	0.22720209	0.97384763
-186.770279	-100.965813	-53.154137	0	0	0	1
-187.394104	-99.969185	-53.252605	0	0	0	1
-188.008972	-98.966499	-53.348789	0	0	0	1
-188.614807	-97.957863	-53.442680	0	0	0	1
-189.211563	-96.943359	-53.534267	0	0	0	1
-189.799149	-95.923080	-53.623566	0	0	0	1
-190.377533	-94.897125	-53.710541	0	0	0	1
-190.946625	-93.865578	-53.795216	0	0	0	1
-191.506393	-92.828537	-53.877586	0	0	0	1
-192.056778	-91.786095	-53.957623	0	0	0	1
-192.597702	-90.738350	-54.035366	0	0	0	1
-193.129120	-89.685394	-54.110756	0	0	0	1
-193.650970	-88.627335	-54.183853	0	0	0	1
-194.163223	-87.564255	-54.254601	0	0	0	1
-194.665787	-86.496254	-54.323025	0	0	0	1
-195.158630	-85.423439	-54.389114	0	0	0	1
-195.641708	-84.345901	-54.452881	0	0	0	1
-196.114960	-83.263756	-54.514282	0	0	0	1
-196.578354	-82.177078	-54.573368	0	0	0	1
-197.031815	-81.085983	-54.630100	0	0	0	1
-197.475311	-79.990578	-54.684490	0	0	0	1
-197.908798	-78.890953	-54.736526	0	0	0	1
-198.332230	-77.787209	-54.786228	0	0	0	1
-198.745560	-76.679459	-54.833565	0	0	0	1
-199.148758	-75.567810	-54.878551	0	0	0	1
-199.541779	-74.452339	-54.921185	0	0	0	1
-199.932465	-73.335556	-54.949680	0	0	0	1
-200.315262	-72.215767	-54.972340	0	0	0	1
-200.687805	-71.092354	-54.992638	0	0	0	1
-201.050034	-69.965431	-55.010582	0	0	0	1
-201.401947	-68.835098	-55.026150	0	0	0	1
-201.743484	-67.701462	-55.039368	0	0	0.1288445	0.99166481
-202.074631	-66.564636	-55.050201	0	0	0.1288445	0.99166481
-202.395340	-65.424721	-55.058689	0	0	0.1288445	0.99166481
-202.705582	-64.281822	-55.064785	0	0	0.1288445	0.99166481
-203.005325	-63.136047	-55.068531	0	0	0.1288445	0.99166481
-203.294540	-61.987507	-55.069908	0	0	0	1
-203.573196	-60.836304	-55.068924	0	0	0	1
-203.841263	-59.682552	-55.065582	0	0	0	1
-204.098740	-58.526360	-55.059853	0	0	0	1
-204.217484	-57.989601	-55.050835	0	0	0	1
-204.298798	-57.625587	-55.039188	0	0	0	1
-204.379471	-57.261330	-55.025173	0	0	0	1
-204.459488	-56.896809	-55.008797	0	0	0	1
-204.538864	-56.532017	-54.990047	0	0	0	1
-204.617569	-56.166927	-54.968945	0	0	0	1
-204.695648	-55.801529	-54.945477	0	0	0	1
-204.773071	-55.435802	-54.919647	0	0	0	1
-204.849838	-55.069736	-54.891464	0	0	0	1
-204.925964	-54.703304	-54.860924	0	0	0.1288445	0.99166481
-205.001450	-54.336502	-54.828011	0	0	0.1288445	0.99166481
-205.076279	-53.969303	-54.792751	0	0	0.1288445	0.99166481
-205.150452	-53.601696	-54.755123	0	0	0.1288445	0.99166481
-205.223969	-53.233662	-54.715157	0	0	0.1288445	0.99166481
-205.296829	-52.865181	-54.672829	0	0	0.1288445	0.99166481
-205.369034	-52.496243	-54.628159	0	0	0.1288445	0.99166481
-205.440567	-52.126827	-54.581131	0	0	0.1288445	0.99166481
-205.511444	-51.756920	-54.531765	0	0	0.1288445	0.99166481
-205.581650	-51.386501	-54.480049	0	0	0.1288445	0.99166481
-205.651169	-51.015556	-54.425995	0	0	0.1288445	0.99166481
-205.720016	-50.644066	-54.369606	0	0	0.1288445	0.99166481
-205.788193	-50.272018	-54.310863	0	0	0.1288445	0.99166481
-205.855667	-49.899391	-54.249790	0	0	0.1288445	0.99166481
-205.922440	-49.526176	-54.186382	0	0	0.1288445	0.99166481
-205.988525	-49.152351	-54.120636	0	0	0.1288445	0.99166481
-206.053894	-48.777901	-54.052578	0	0	0.1288445	0.99166481
-206.118561	-48.402809	-53.982182	0	0	0.1288445	0.99166481
-206.182495	-48.027058	-53.909458	0	0	0.1288445	0.99166481
-206.245697	-47.650635	-53.834431	0	0	0.1288445	0.99166481
-206.308167	-47.273525	-53.757072	0	0	0.1288445	0.99166481
-206.369888	-46.895710	-53.677410	0	0	0.1288445	0.99166481
-206.430862	-46.517170	-53.595432	0	0	0.1288445	0.99166481
-206.491089	-46.137897	-53.511143	0	0	0.1288445	0.99166481
-206.550522	-45.757874	-53.424549	0	0	0.1288445	0.99166481
-206.609177	-45.377079	-53.335655	0	0	0.1288445	0.99166481
-206.667038	-44.995506	-53.244461	0	0	0.1288445	0.99166481
-206.724106	-44.613132	-53.150982	0	0	0.1288445	0.99166481
-206.780365	-44.229946	-53.055195	0	0	0.1288445	0.99166481
-206.835785	-43.845936	-52.957134	0	0	0.1288445	0.99166481
-206.890381	-43.461082	-52.856796	0	0	0.1288445	0.99166481
-206.944138	-43.075371	-52.754162	0	0	0.1288445	0.99166481
-206.997025	-42.688789	-52.649269	0	0	0.1288445	0.99166481
-207.049042	-42.301323	-52.542103	0	0	0.1288445	0.99166481
-207.100174	-41.912956	-52.432663	0	0	0.1288445	0.99166481
-207.150421	-41.523674	-52.320969	0	0	0.1288445	0.99166481
-207.199753	-41.133469	-52.207008	0	0	0.1288445	0.99166481
-207.248154	-40.742321	-52.090794	0	0	0.1288445	0.99166481
-207.295624	-40.350220	-51.972336	0	0	0.1288445	0.99166481
-207.342133	-39.957153	-51.851635	0	0	0.1288445	0.99166481
-207.387680	-39.563107	-51.728699	0	0	0.1288445	0.99166481
-207.432251	-39.168068	-51.603523	0	0	0.1288445	0.99166481
-207.475830	-38.772022	-51.476120	0	0	0.1288445	0.99166481
-207.518387	-38.374962	-51.346489	0	0	0.1288445	0.99166481
-207.559906	-37.976868	-51.214645	0	0	0.1288445	0.99166481
-207.600388	-37.577736	-51.080585	0	0	0.1288445	0.99166481
-207.639816	-37.177547	-50.944317	0	0	0.1288445	0.99166481
-207.678162	-36.776299	-50.805836	0	0	0.1288445	0.99166481
-207.715408	-36.373970	-50.665161	0	0	0.1288445	0.99166481
-207.751556	-35.970558	-50.522301	0	0	0.1288445	0.99166481
-207.786560	-35.566044	-50.377251	0	0	0.1288445	0.99166481
-207.820419	-35.160427	-50.230019	0	0	0.1288445	0.99166481
-207.853104	-34.753689	-50.080616	0	0	0.1288445	0.99166481
-207.884613	-34.345825	-49.929043	0	0	0.1288445	0.99166481
-207.914917	-33.936821	-49.775303	0	0	0.1288445	0.99166481
-207.944000	-33.526672	-49.619408	0	0	0.1288445	0.99166481
-207.971832	-33.115364	-49.461353	0	0	0.1288445	0.99166481
-207.998413	-32.702896	-49.301167	0	0	0.1288445	0.99166481
-208.023697	-32.289249	-49.138828	0	0	0.1288445	0.99166481
-208.047684	-31.874420	-48.974361	0	0	0.1288445	0.99166481
-208.070358	-31.458405	-48.807774	0	0	0.1288445	0.99166481
-208.091675	-31.041189	-48.639069	0	0	0.1288445	0.99166481
-208.111633	-30.622770	-48.468262	0	0	0.1288445	0.99166481
-208.130203	-30.203135	-48.295326	0	0	0.1288445	0.99166481
-208.147369	-29.782286	-48.120308	0	0	0.1288445	0.99166481
-208.163101	-29.360207	-47.943188	0	0	0.1288445	0.99166481
-208.177383	-28.936897	-47.763985	0	0	0.1288445	0.99166481
-208.190201	-28.512350	-47.582699	0	0	0.1288445	0.99166481
-208.201508	-28.086561	-47.399357	0	0	0.1288445	0.99166481
-208.211304	-27.659523	-47.213943	0	0	0.1288445	0.99166481
-208.219559	-27.231232	-47.026478	0	0	0.1288445	0.99166481
-208.226257	-26.801685	-46.836971	0	0	0.1288445	0.99166481
-208.231354	-26.370871	-46.645397	0	0	0.1288445	0.99166481
-208.234848	-25.938795	-46.451817	0	0	0.1288445	0.99166481
-208.236710	-25.505447	-46.256195	0	0	0.1288445	0.99166481
-208.236908	-25.070827	-46.058559	0	0	0.1288445	0.99166481
-208.235428	-24.634933	-45.858910	0	0	0.1288445	0.99166481
-208.232254	-24.197762	-45.657261	0	0	0.1288445	0.99166481
-208.227325	-23.759306	-45.453609	0	0	0.1288445	0.99166481
-208.220657	-23.319574	-45.247993	0	0	0.1288445	0.99166481
-208.212204	-22.878555	-45.040375	0	0	0.1288445	0.99166481
-208.201950	-22.436251	-44.830795	0	0	0.1288445	0.99166481
-208.189865	-21.992666	-44.619259	0	0	0.1288445	0.99166481
-208.175919	-21.547794	-44.405766	0	0	0.1288445	0.99166481
-208.160095	-21.101635	-44.190319	0	0	0.1288445	0.99166481
-208.142365	-20.654194	-43.972950	0	0	0.1288445	0.99166481
-208.122711	-20.205465	-43.753639	0	0	0.1288445	0.99166481
-208.101089	-19.755459	-43.532425	0	0	0.1288445	0.99166481
-208.077499	-19.304165	-43.309280	0	0	0.1288445	0.99166481
-208.051895	-18.851597	-43.084248	0	0	0.1288445	0.99166481
-208.024246	-18.397753	-42.857323	0	0	0.1288445	0.99166481
-207.994537	-17.942633	-42.628506	0	0	0.1288445	0.99166481
-207.962753	-17.486242	-42.397816	0	0	0.1288445	0.99166481
-207.928848	-17.028584	-42.165264	0	0	0.1288445	0.99166481
-207.892807	-16.569660	-41.930847	0	0	0.1288445	0.99166481
-207.854584	-16.109482	-41.694592	0	0	0.1288445	0.99166481
-207.814178	-15.648047	-41.456497	0	0	0.1288445	0.99166481
-207.771561	-15.185362	-41.216564	0	0	0.1288445	0.99166481
-207.726685	-14.721439	-40.974823	0	0	0.1288445	0.99166481
-207.679535	-14.256274	-40.731266	0	0	0.1288445	0.99166481
-207.630081	-13.789880	-40.485912	0	0	0.1288445	0.99166481
-207.578308	-13.322255	-40.238758	0	0	0.1288445	0.99166481
-207.524170	-12.853426	-39.989845	0	0	0.1288445	0.99166481
-207.467651	-12.383378	-39.739140	0	0	0.1288445	0.99166481
-207.408722	-11.912131	-39.486683	0	0	0.1288445	0.99166481
-207.347366	-11.439690	-39.232471	0	0	0.1288445	0.99166481
-207.283524	-10.966068	-38.976524	0	0	0.1288445	0.99166481
-207.217209	-10.491269	-38.718842	0	0	0.1288445	0.99166481
-207.148376	-10.015306	-38.459442	0	0	0.1288445	0.99166481
-207.076981	-9.538191	-38.198330	0	0	0.1288445	0.99166481
-207.003021	-9.059926	-37.935513	0	0	0.1288445	0.99166481
-206.926468	-8.580535	-37.671017	0	0	0.1288445	0.99166481
-206.847275	-8.100017	-37.404835	0	0	0.1288445	0.99166481
-206.765442	-7.618392	-37.136986	0	0	0.1288445	0.99166481
-206.680908	-7.135664	-36.867474	0	0	0.1288445	0.99166481
-206.593674	-6.651857	-36.596321	0	0	0.1288445	0.99166481
-206.503708	-6.166976	-36.323524	0	0	0.1288445	0.99166481
-206.410965	-5.681038	-36.049110	0	0	0.1288445	0.99166481
-206.315445	-5.194058	-35.773075	0	0	0.1288445	0.99166481
-206.217087	-4.706044	-35.495434	0	0	0.22720209	0.97384763
-206.115906	-4.217015	-35.216202	0	0	0.22720209	0.97384763
-206.011841	-3.726991	-34.935387	0	0	0.22720209	0.97384763
-205.904877	-3.235983	-34.653008	0	0	0.22720209	0.97384763
-205.794983	-2.744004	-34.369061	0	0	0.22720209	0.97384763
-205.682129	-2.251072	-34.083565	0	0	0.22720209	0.97384763
-205.566315	-1.757206	-33.796524	0	0	0.22720209	0.97384763
-205.447479	-1.262426	-33.507969	0	0	0.22720209	0.97384763
-205.325623	-0.766745	-33.217892	0	0	0.22720209	0.97384763
-205.200699	-0.270189	-32.926319	0	0	0.22720209	0.97384763
-205.072693	0.227235	-32.633251	0	0	0.22720209	0.97384763
-204.941574	0.725500	-32.338696	0	0	0.22720209	0.97384763
-204.807312	1.224588	-32.042683	0	0	0.22720209	0.97384763
-204.669891	1.724478	-31.745203	0	0	0.22720209	0.97384763
-204.529297	2.225154	-31.446278	0	0	0.22720209	0.97384763
-204.385468	2.726587	-31.145933	0	0	0.22720209	0.97384763
-204.238403	3.228765	-30.844151	0	0	0.22720209	0.97384763
-204.088074	3.731661	-30.540964	0	0	0.22720209	0.97384763
-203.934448	4.235254	-30.236382	0	0	0.22720209	0.97384763
-203.777512	4.739522	-29.930412	0	0	0.22720209	0.97384763
-203.617233	5.244439	-29.623070	0	0	0.22720209	0.97384763
-203.453583	5.749990	-29.314362	0	0	0.22720209	0.97384763
-203.286545	6.256141	-29.004311	0	0	0.22720209	0.97384763
-203.116104	6.762872	-28.692915	0	0	0.22720209	0.97384763
-202.942215	7.270160	-28.380196	0	0	0.22720209	0.97384763
-202.764862	7.777977	-28.066170	0	0	0.22720209	0.97384763
-202.584015	8.286303	-27.750835	0	0	0.22720209	0.97384763
-202.399673	8.795107	-27.434221	0	0	0.22720209	0.97384763
-202.211792	9.304362	-27.116323	0	0	0.22720209	0.97384763
-202.020340	9.814044	-26.797173	0	0	0.22720209	0.97384763
-201.825333	10.324128	-26.476767	0	0	0.22720209	0.97384763
-201.626709	10.834580	-26.155128	0	0	0.22720209	0.97384763
-201.424469	11.345383	-25.832254	0	0	0.22720209	0.97384763
-201.218567	11.856499	-25.508179	0	0	0.22720209	0.97384763
-201.009003	12.367902	-25.182899	0	0	0.22720209	0.97384763
-200.795761	12.879564	-24.856438	0	0	0.22720209	0.97384763
-200.578796	13.391454	-24.528801	0	0	0.22720209	0.97384763
-200.358093	13.903545	-24.200003	0	0	0.22720209	0.97384763
-200.133636	14.415806	-23.870054	0	0	0.22720209	0.97384763
-199.905411	14.928204	-23.538973	0	0	0.22720209	0.97384763
-199.673401	15.440713	-23.206770	0	0	0.22720209	0.97384763
-199.437561	15.953296	-22.873455	0	0	0.22720209	0.97384763
-199.197891	16.465925	-22.539055	0	0	0.22720209	0.97384763
-198.954361	16.978565	-22.203569	0	0	0.22720209	0.97384763
-198.706970	17.491188	-21.867010	0	0	0.22720209	0.97384763
-198.455673	18.003759	-21.529398	0	0	0.22720209	0.97384763
-198.200470	18.516243	-21.190748	0	0	0.22720209	0.97384763
-197.941330	19.028610	-20.851067	0	0	0.22720209	0.97384763
-197.678253	19.540827	-20.510368	0	0	0.22720209	0.97384763
-197.411209	20.052856	-20.168665	0	0	0.22720209	0.97384763
-197.140198	20.564661	-19.825981	0	0	0.22720209	0.97384763
-196.865173	21.076214	-19.482319	0	0	0.22720209	0.97384763
-196.586121	21.587475	-19.137691	0	0	0.22720209	0.97384763
-196.303055	22.098412	-18.792122	0	0	0.22720209	0.97384763
-196.015930	22.608986	-18.445618	0	0	0.22720209	0.97384763
-195.724762	23.119162	-18.098190	0	0	0.22720209	0.97384763
-195.429489	23.628901	-17.749857	0	0	0.22720209	0.97384763
-195.130142	24.138166	-17.400635	0	0	0.22720209	0.97384763
-194.826691	24.646929	-17.050526	0	0	0.22720209	0.97384763
-194.519104	25.155144	-16.699558	0	0	0.22720209	0.97384763
-194.207397	25.662773	-16.347740	0	0	0.22720209	0.97384763
-193.891525	26.169781	-15.995085	0	0	0.22720209	0.97384763
-193.571503	26.676134	-15.641595	0	0	0.22720209	0.97384763
-193.247299	27.181784	-15.287307	0	0	0.22720209	0.97384763
-192.918915	27.686699	-14.932217	0	0	0.22720209	0.97384763
-192.586334	28.190834	-14.576349	0	0	0.22720209	0.97384763
-192.249542	28.694159	-14.219711	0	0	0.22720209	0.97384763
-191.908539	29.196621	-13.862322	0	0	0.22720209	0.97384763
-191.563293	29.698196	-13.504189	0	0	0.22720209	0.97384763
-191.213821	30.198828	-13.145338	0	0	0.22720209	0.97384763
-190.860092	30.698486	-12.785770	0	0	0.22720209	0.97384763
-190.502106	31.197132	-12.425506	0	0	0.22720209	0.97384763
-190.139847	31.694714	-12.064564	0	0	0.22720209	0.97384763
-189.773315	32.191200	-11.702944	0	0	0.22720209	0.97384763
-189.402512	32.686543	-11.340682	0	0	0.22720209	0.97384763
-189.027405	33.180710	-10.977774	0	0	0.22720209	0.97384763
-188.648010	33.673641	-10.614241	0	0	0.22720209	0.97384763
-188.264297	34.165318	-10.250097	0	0	0.22720209	0.97384763
-187.876282	34.655682	-9.885350	0	0	0.22720209	0.97384763
-187.483948	35.144695	-9.520028	0	0	0.22720209	0.97384763
-187.087311	35.632309	-9.154138	0	0	0.22720209	0.97384763
-186.686325	36.118492	-8.787693	0	0	0.22720209	0.97384763
-186.281021	36.603191	-8.420710	0	0	0.22720209	0.97384763
-185.871368	37.086365	-8.053199	0	0	0.22720209	0.97384763
-185.457397	37.567978	-7.685181	0	0	0.22720209	0.97384763
-185.039078	38.047974	-7.316667	0	0	0.22720209	0.97384763
-184.616425	38.526318	-6.947672	0	0	0.22720209	0.97384763
-184.189423	39.002964	-6.578213	0	0	0.22720209	0.97384763
-183.758087	39.477863	-6.208294	0	0	0.1288445	0.99166481
-183.322388	39.950977	-5.837944	0	0	0.1288445	0.99166481
-182.882355	40.422264	-5.467175	0	0	0.1288445	0.99166481
-182.437973	40.891666	-5.095985	0	0	0.1288445	0.99166481
-181.989243	41.359150	-4.724419	0	0	0.1288445	0.99166481
-181.536179	41.824665	-4.352456	0	0	0.1288445	0.99166481
-181.078766	42.288174	-3.980143	0	0	0.1288445	0.99166481
-180.617004	42.749619	-3.607476	0	0	0.1288445	0.99166481
-180.150925	43.208965	-3.234475	0	0	0.1288445	0.99166481
-179.680496	43.666164	-2.861151	0	0	0.1288445	0.99166481
-179.205750	44.121170	-2.487529	0	0	0.1288445	0.99166481
-178.726669	44.573933	-2.113607	0	0	0.1288445	0.99166481
-178.243271	45.024414	-1.739422	0	0	0.1288445	0.99166481
-177.755569	45.472565	-1.364971	0	0	0.1288445	0.99166481
-177.263535	45.918339	-0.990271	0	0	0.1288445	0.99166481
-176.767212	46.361691	-0.615334	0	0	0.1288445	0.99166481
-176.266602	46.802574	-0.240193	0	0	0.1288445	0.99166481
-175.761688	47.240940	0.135158	0	0	0.1288445	0.99166481
-175.252487	47.676754	0.510690	0	0	0.1288445	0.99166481
-174.739029	48.109951	0.886402	0	0	0.1288445	0.99166481
-174.221298	48.540501	1.262267	0	0	0.1288445	0.99166481
-173.699326	48.968346	1.638273	0	0	0.1288445	0.99166481
-173.173096	49.393448	2.014409	0	0	0.1288445	0.99166481
-172.642639	49.815762	2.390652	0	0	0.1288445	0.99166481
-172.107971	50.235233	2.766991	0	0	0.1288445	0.99166481
-171.569077	50.651821	3.143416	0	0	0.1288445	0.99166481
-171.025986	51.065479	3.519919	0	0	0.1288445	0.99166481
-170.478714	51.476158	3.896462	0	0	0.1288445	0.99166481
-169.927277	51.883812	4.273059	0	0	0.1288445	0.99166481
-169.371674	52.288395	4.649666	0	0	0.1288445	0.99166481
-168.811935	52.689865	5.026286	0	0	0.1288445	0.99166481
-168.248062	53.088169	5.402896	0	0	0.1288445	0.99166481
-167.680069	53.483269	5.779480	0	0	0.1288445	0.99166481
-167.107986	53.875111	6.156045	0	0	0.1288445	0.99166481
-166.531830	54.263653	6.532539	0	0	0.1288445	0.99166481
-165.951599	54.648846	6.908977	0	0	0.1288445	0.99166481
-165.367340	55.030647	7.285337	0	0	0.1288445	0.99166481
-164.779037	55.409008	7.661602	0	0	0.1288445	0.99166481
-164.186737	55.783882	8.037755	0	0	0.1288445	0.99166481
-163.590439	56.155228	8.413787	0	0	0.1288445	0.99166481
-162.990173	56.522995	8.789673	0	0	0.1288445	0.99166481
-162.385971	56.887142	9.165405	0	0	0.1288445	0.99166481
-161.777832	57.247620	9.540966	0	0	0.1288445	0.99166481
-161.165787	57.604393	9.916339	0	0	0.1288445	0.99166481
-160.549866	57.957397	10.291519	0	0	0.1288445	0.99166481
-159.930069	58.306602	10.666483	0	0	0.1288445	0.99166481
-159.306442	58.651958	11.041224	0	0	0.1288445	0.99166481
-158.679001	58.993423	11.415711	0	0	0.1288445	0.99166481
-158.047775	59.330948	11.789947	0	0	0.1288445	0.99166481
-157.412781	59.664490	12.163904	0	0	0.1288445	0.99166481
-156.774033	59.994007	12.537580	0	0	0.1288445	0.99166481
-156.131592	60.319450	12.910948	0	0	0.1288445	0.99166481
-155.485443	60.640781	13.283999	0	0	0.1288445	0.99166481
-154.835648	60.957958	13.656716	0	0	0.1288445	0.99166481
-154.182220	61.270927	14.029085	0	0	0.1288445	0.99166481
-153.525177	61.579647	14.401095	0	0	0.1288445	0.99166481
-152.864578	61.884079	14.772728	0	0	0.1288445	0.99166481
-152.200409	62.184181	15.143973	0	0	0.1288445	0.99166481
-151.532730	62.479904	15.514816	0	0	0.1288445	0.99166481
-150.861572	62.771214	15.885225	0	0	0.1288445	0.99166481
-150.186951	63.058056	16.255213	0	0	0.1288445	0.99166481
-149.508896	63.340401	16.624746	0	0	0.1288445	0.99166481
-148.827454	63.618202	16.993807	0	0	0.1288445	0.99166481
-148.142654	63.891415	17.362402	0	0	0.1288445	0.99166481
-147.454529	64.159996	17.730495	0	0	0.029199523	0.9995736
-146.763092	64.423912	18.098080	0	0	0.029199523	0.9995736
-146.068405	64.683121	18.465145	0	0	0.029199523	0.9995736
-145.370483	64.937569	18.831676	0	0	0.029199523	0.9995736
-144.669373	65.187233	19.197657	0	0	0.029199523	0.9995736
-143.965118	65.432060	19.563070	0	0	0.029199523	0.9995736
-143.257721	65.672028	19.927896	0	0	0.029199523	0.9995736
-142.547256	65.907066	20.292137	0	0	0.029199523	0.9995736
-141.833725	66.137169	20.655764	0	0	0.029199523	0.9995736
-141.117203	66.362282	21.018766	0	0	0.029199523	0.9995736
-140.397690	66.582359	21.381138	0	0	0.029199523	0.9995736
-139.675247	66.797379	21.742847	0	0	0.029199523	0.9995736
-138.949905	67.007294	22.103899	0	0	0.029199523	0.9995736
-138.221725	67.212059	22.464266	0	0	0.029199523	0.9995736
-137.490707	67.411652	22.823938	0	0	0.029199523	0.9995736
-136.756927	67.606026	23.182905	0	0	0.029199523	0.9995736
-136.020401	67.795151	23.541151	0	0	0.029199523	0.9995736
-135.281189	67.978981	23.898657	0	0	0.029199523	0.9995736
-134.539307	68.157494	24.255409	0	0	0.029199523	0.9995736
-133.794830	68.330643	24.611397	0	0	0.029199523	0.9995736
-133.047775	68.498398	24.966606	0	0	0.029199523	0.9995736
-132.298203	68.660721	25.321016	0	0	0.029199523	0.9995736
-131.546158	68.817581	25.674625	0	0	0.029199523	0.9995736
-130.791656	68.968948	26.027411	0	0	0.029199523	0.9995736
-130.034775	69.114777	26.379360	0	0	0.029199523	0.9995736
-129.275528	69.255043	26.730457	0	0	0.029199523	0.9995736
-128.513992	69.389702	27.080702	0	0	0.029199523	0.9995736
-127.750191	69.518738	27.430065	0	0	0.029199523	0.9995736
-126.984184	69.642113	27.778536	0	0	0.029199523	0.9995736
-126.216011	69.759789	28.126099	0	0	0.029199523	0.9995736
-125.445717	69.871750	28.472744	0	0	0.029199523	0.9995736
-124.673355	69.977951	28.818457	0	0	0.029199523	0.9995736
-123.898964	70.078369	29.163229	0	0	0.029199523	0.9995736
-123.122604	70.172966	29.507038	0	0	0.029199523	0.9995736
-122.344322	70.261719	29.849874	0	0	0.029199523	0.9995736
-121.564156	70.344597	30.191734	0	0	0.029199523	0.9995736
-120.782166	70.421577	30.532578	0	0	0.029199523	0.9995736
-119.998398	70.492622	30.872425	0	0	0.029199523	0.9995736
-119.212898	70.557716	31.211237	0	0	0.029199523	0.9995736
-118.425720	70.616821	31.549007	0	0	0.029199523	0.9995736
-117.636917	70.669922	31.885729	0	0	0.029199523	0.9995736
-116.846542	70.716988	32.221371	0	0	0.029199523	0.9995736
-116.054642	70.757980	32.555950	0	0	0.029199523	0.9995736
-115.261276	70.792892	32.889423	0	0	0.029199523	0.9995736
-114.466484	70.821693	33.221798	0	0	0.029199523	0.9995736
-113.670326	70.844353	33.553055	0	0	0.029199523	0.9995736
-112.872856	70.860863	33.883183	0	0	0.029199523	0.9995736
-112.074127	70.871185	34.212154	0	0	0.029199523	0.9995736
-111.274185	70.875298	34.539970	0	0	0.029199523	0.9995736
-110.473099	70.873192	34.866611	0	0	0.029199523	0.9995736
-109.670914	70.864838	35.192070	0	0	0.029199523	0.9995736
-108.867676	70.850212	35.516338	0	0	0.029199523	0.9995736
-108.063461	70.829300	35.839390	0	0	0.029199523	0.9995736
-107.258308	70.802078	36.161224	0	0	0.029199523	0.9995736
-106.452271	70.768532	36.481819	0	0	-0.070737201	0.99749499
-105.645416	70.728630	36.801167	0	0	-0.070737201	0.99749499
-104.837799	70.682373	37.119251	0	0	-0.070737201	0.99749499
-104.029472	70.629723	37.436069	0	0	-0.070737201	0.99749499
-103.220490	70.570686	37.751591	0	0	-0.070737201	0.99749499
-102.410912	70.505226	38.065826	0	0	-0.070737201	0.99749499
-101.600792	70.433334	38.378742	0	0	-0.070737201	0.99749499
-100.790199	70.355003	38.690338	0	0	-0.070737201	0.99749499
-99.289948	70.844131	38.449287	0	0	0	1
-96.825172	72.022049	37.499172	0	0	0	1
-94.340775	73.068069	36.614540	0	0	0	1
-91.846420	73.986275	35.794617	0	0	0	1
-89.351082	74.781204	35.038303	0	0	0	1
-86.862854	75.457771	34.344173	0	0	0	1
-84.389122	76.021164	33.710567	0	0	0	1
-81.936485	76.476761	33.135616	0	0	0	1
-79.510696	76.830101	32.617256	0	0	0	1
-77.116959	77.086716	32.153343	0	0	0	1
-74.759644	77.252197	31.741594	0	0	0	1
-72.442589	77.332024	31.379702	0	0	0	1
-70.169022	77.331627	31.065311	0	0	0	1
-67.941643	77.256241	30.796083	0	0	0	1
-65.762573	77.111015	30.569654	0	0	0	1
-63.633648	76.900856	30.383736	0	0	0	1
-61.556072	76.630516	30.236040	0	0	0	1
-59.530872	76.304520	30.124374	0	0	0	1
-57.558651	75.927155	30.046595	0	0	0	1
-55.639801	75.502548	30.000631	0	0	0	1
-53.774364	75.034523	29.984507	0	0	0	1
-51.962189	74.526764	29.996302	0	0	0	1
-50.202995	73.982681	30.034203	0	0	0	1
-48.496269	73.405502	30.096481	0	0	0	1
-46.841362	72.798241	30.181484	0	0	0	1
-45.237499	72.163727	30.287640	0	0	0	1
-43.683865	71.504585	30.413483	0	0	0	1
-42.179485	70.823250	30.557615	0	0	0	1
-40.723408	70.122017	30.718719	0	0	0	1
-39.314503	69.402977	30.895557	0	0	0	1
-37.951710	68.668121	31.086954	0	0	0	1
-36.633892	67.919243	31.291828	0	0	0	1
-35.359905	67.158020	31.509146	0	0	0	1
-34.128593	66.386009	31.737947	0	0	0	1
-32.938774	65.604637	31.977333	0	0	0	1
-31.789301	64.815216	32.226460	0	0	0	1
-30.679005	64.018959	32.484543	0	0	0	1
-29.606764	63.216991	32.750847	0	0	0	1
-28.571438	62.410328	33.024689	0	0	0	1
-27.571892	61.599915	33.305416	0	0	0	1
-26.607058	60.786598	33.592449	0	0	0	1
-25.675854	59.971172	33.885227	0	0	0	1
-24.777264	59.154358	34.183235	0	0	0	1
-23.910246	58.336826	34.485985	0	0	0	1
-23.073801	57.519157	34.793030	0	0	0	1
-22.266979	56.701916	35.103958	0	0	0	1
-21.488874	55.885590	35.418385	0	0	0	1
-20.738518	55.070629	35.735947	0	0	0	1
-20.015068	54.257454	36.056309	0	0	0	1
-19.317657	53.446426	36.379162	0	0	0	1
-18.645470	52.637886	36.704220	0	0	0	1
-17.997723	51.832146	37.031212	0	0	0	1
-17.373602	51.029461	37.359894	0	0	0	1
-16.772392	50.230076	37.690037	0	0	0	1
-16.371660	54.611916	35.368885	0	0	0	1
-15.972304	62.018326	31.484016	0	0	0	1
-15.473704	71.265327	26.633709	0	0	0	1
-14.833783	83.133240	20.408657	0	0	0	1
-13.982751	98.916412	12.129947	0	0	0	1
-12.795921	120.927246	0.584651	0	0	0	1
-11.026092	153.750366	-16.631987	0	0	0	1
-8.104857	207.927322	-45.049305	0	0	0	1
-2.368707	314.309479	-100.849693	0	0	0	1
99.0488	31.0457	-92.0285	0.0	0.0	-0.95533609703	0.295521474197	
