102.650490	-330.473877	-253.544510	0	0	0	1
71.187370	-243.489792	-188.789810	0	0	0	1
52.874447	-192.824860	-151.081543	0	0	0	1
40.897572	-159.659546	-126.404938	0	0	0	1
32.456486	-136.259781	-109.000587	0	0	0	1
26.189585	-118.865143	-96.068115	0	0	0	1
21.354612	-105.425537	-86.080841	0	0	0	1
20.450172	-104.722427	-85.429695	0	0	0	1
19.889376	-105.173828	-85.625015	0	0	0	1
19.324162	-105.622459	-85.820618	0	0	0	1
18.754530	-106.068260	-86.016510	0	0	0	1
18.180496	-106.511192	-86.212669	0	0	0	1
17.602068	-106.951202	-86.409088	0	0	0	1
17.019257	-107.388245	-86.605774	0	0	0	1
16.432066	-107.822273	-86.802696	0	0	0	1
15.840515	-108.253235	-86.999863	0	0	0	1
15.244612	-108.681084	-87.197266	0	0	0	1
14.644367	-109.105774	-87.394897	0	0	0	1
14.039799	-109.527260	-87.592758	0	0	0	1
13.430911	-109.945480	-87.790810	0	0	0	1
12.817726	-110.360405	-87.989075	0	0	0	1
12.200255	-110.771973	-88.187538	0	0	0	1
11.578511	-111.180138	-88.386177	0	0	0	1
10.952514	-111.584846	-88.584999	0	0	0	1
10.322275	-111.986069	-88.783989	0	0	0	1
9.687814	-112.383736	-88.983139	0	0	0	1
9.049147	-112.777817	-89.182449	0	0	0	1
8.406290	-113.168259	-89.381905	0	0	0	1
7.759266	-113.555008	-89.581505	0	0	0	1
7.108089	-113.938019	-89.781250	0	0	0	1
6.452783	-114.317245	-89.981094	0	0	0	1
5.793364	-114.692635	-90.181068	0	0	0	1
5.129854	-115.064148	-90.381142	0	0	0	1
4.462276	-115.431732	-90.581322	0	0	0	1
3.790650	-115.795341	-90.781593	0	0	0	1
3.114999	-116.154930	-90.981949	0	0	0	1
2.435345	-116.510445	-91.182381	0	0	0	1
1.751711	-116.861839	-91.382874	0	0	0.73739371	0.67546319
1.064123	-117.209076	-91.583443	0	0	0.73739371	0.67546319
0.372605	-117.552094	-91.784058	0	0	0	1
-0.322817	-117.890862	-91.984718	0	0	0	1
-1.022119	-118.225319	-92.185410	0	0	0	1
-1.725273	-118.555428	-92.386139	0	0	0	1
-2.432255	-118.881134	-92.586884	0	0	0	1
-3.143034	-119.202400	-92.787636	0	0	0	1
-3.857582	-119.519180	-92.988411	0	0	0	1
-4.575873	-119.831421	-93.189163	0	0	0	1
-5.297876	-120.139076	-93.389908	0	0	0	1
-6.023561	-120.442116	-93.590652	0	0	0	1
-6.752900	-120.740479	-93.791351	0	0	0	1
-7.485859	-121.034119	-93.992027	0	0	0	1
-8.222408	-121.323006	-94.192657	0	0	0	1
-8.962516	-121.607086	-94.393234	0	0	0	1
-9.706149	-121.886314	-94.593750	0	0	0	1
-10.453273	-122.160645	-94.794205	0	0	0	1
-11.203856	-122.430038	-94.994583	0	0	0	1
-11.957864	-122.694458	-95.194885	0	0	0	1
-12.715262	-122.953842	-95.395088	0	0	0	1
-13.476013	-123.208160	-95.595200	0	0	0	1
-14.240084	-123.457367	-95.795212	0	0	0	1
-15.007436	-123.701424	-95.995094	0	0	0	1
-15.778031	-123.940285	-96.194870	0	0	0	1
-16.551836	-124.173904	-96.394508	0	0	0	1
-17.328810	-124.402245	-96.594009	0	0	0	1
-18.108913	-124.625267	-96.793373	0	0	0	1
-18.892111	-124.842926	-96.992577	0	0	0	1
-19.678358	-125.055183	-97.191612	0	0	0	1
-20.467617	-125.261993	-97.390488	0	0	0	1
-21.259850	-125.463326	-97.589195	0	0	0.66627604	0.74570519
-22.055014	-125.659134	-97.787712	0	0	0.66627604	0.74570519
-22.853064	-125.849380	-97.986031	0	0	0	1
-23.653961	-126.034027	-98.184158	0	0	0	1
-24.457661	-126.213028	-98.382065	0	0	0	1
-25.264120	-126.386353	-98.579773	0	0	0	1
-26.073299	-126.553963	-98.777245	0	0	0	1
-26.885151	-126.715820	-98.974495	0	0	0	1
-27.699627	-126.871887	-99.171494	0	0	0	1
-28.516687	-127.022125	-99.368248	0	0	0	1
-29.336285	-127.166496	-99.564758	0	0	0	1
-30.158373	-127.304970	-99.760994	0	0	0	1
-30.982906	-127.437508	-99.956970	0	0	0	1
-31.809834	-127.564079	-100.152672	0	0	0	1
-32.639114	-127.684639	-100.348076	0	0	0	1
-33.470692	-127.799164	-100.543198	0	0	0	1
-34.304523	-127.907616	-100.738007	0	0	0	1
-35.140560	-128.009949	-100.932503	0	0	0	1
-35.978752	-128.106155	-101.126701	0	0	0	1
-36.819046	-128.196182	-101.320557	0	0	0	1
-37.661396	-128.280014	-101.514091	0	0	0	1
-38.505753	-128.357590	-101.707291	0	0	0	1
-39.352055	-128.428909	-101.900131	0	0	0	1
-40.200264	-128.493942	-102.092636	0	0	0	1
-41.050320	-128.552628	-102.284760	0	0	0	1
-41.902168	-128.604965	-102.476524	0	0	0	1
-42.755760	-128.650909	-102.667908	0	0	0	1
-43.611046	-128.690445	-102.858902	0	0	0	1
-44.467972	-128.723541	-103.049507	0	0	0	1
-45.326473	-128.750153	-103.239716	0	0	0	1
-46.186504	-128.770264	-103.429512	0	0	0	1
-47.048008	-128.783859	-103.618896	0	0	0.58850112	0.8084964
-47.910931	-128.790894	-103.807869	0	0	0.58850112	0.8084964
-48.775219	-128.791351	-103.996391	0	0	0.58850112	0.8084964
-49.640808	-128.785217	-104.184486	0	0	0	1
-50.507648	-128.772446	-104.372131	0	0	0	1
-51.375683	-128.753021	-104.559334	0	0	0	1
-52.244854	-128.726929	-104.746071	0	0	0	1
-53.115101	-128.694138	-104.932343	0	0	0	1
-53.986370	-128.654617	-105.118134	0	0	0	1
-54.858604	-128.608368	-105.303459	0	0	0	1
-55.731739	-128.555344	-105.488281	0	0	0	1
-56.605721	-128.495544	-105.672607	0	0	0	1
-57.480492	-128.428925	-105.856438	0	0	0	1
-58.355988	-128.355499	-106.039757	0	0	0	1
-59.232151	-128.275223	-106.222549	0	0	0	1
-60.108921	-128.188080	-106.404831	0	0	0	1
-60.986240	-128.094070	-106.586563	0	0	0	1
-61.864052	-127.993164	-106.767769	0	0	0	1
-62.742279	-127.885338	-106.948418	0	0	0	1
-63.620872	-127.770584	-107.128517	0	0	0	1
-64.499771	-127.648895	-107.308067	0	0	0	1
-65.378914	-127.520241	-107.487030	0	0	0	1
-66.258240	-127.384613	-107.665428	0	0	0	1
-67.137672	-127.241997	-107.843239	0	0	0	1
-68.017174	-127.092384	-108.020462	0	0	0	1
-68.896660	-126.935768	-108.197098	0	0	0	1
-69.776077	-126.772118	-108.373123	0	0	0	1
-70.655357	-126.601440	-108.548538	0	0	0	1
-71.534447	-126.423714	-108.723335	0	0	0	1
-72.413277	-126.238937	-108.897507	0	0	0	1
-73.291786	-126.047096	-109.071053	0	0	0	1
-74.169899	-125.848183	-109.243958	0	0	0.50484609	0.86320938
-75.047569	-125.642189	-109.416222	0	0	0.50484609	0.86320938
-75.924713	-125.429108	-109.587830	0	0	0.50484609	0.86320938
-76.801285	-125.208931	-109.758774	0	0	0.50484609	0.86320938
-77.677216	-124.981667	-109.929070	0	0	0	1
-78.552429	-124.747284	-110.098686	0	0	0	1
-79.426872	-124.505798	-110.267624	0	0	0	1
-80.300476	-124.257210	-110.435875	0	0	0	1
-81.173180	-124.001495	-110.603432	0	0	0	1
-82.044907	-123.738663	-110.770302	0	0	0	1
-82.915604	-123.468712	-110.936462	0	0	0	1
-83.785202	-123.191635	-111.101906	0	0	0	1
-84.655617	-122.910606	-111.261299	0	0	0	1
-85.527618	-122.626755	-111.412636	0	0	0	1
-86.398415	-122.335732	-111.563210	0	0	0	1
-87.267952	-122.037544	-111.713036	0	0	0	1
-88.136169	-121.732185	-111.862091	0	0	0	1
-89.002983	-121.419662	-112.010384	0	0	0	1
-89.868332	-121.099968	-112.157906	0	0	0	1
-90.732155	-120.773117	-112.304642	0	0	0	1
-91.594376	-120.439110	-112.450592	0	0	0	1
-92.454948	-120.097939	-112.595757	0	0	0	1
-93.313782	-119.749626	-112.740128	0	0	0	1
-94.170822	-119.394173	-112.883682	0	0	0	1
-95.025993	-119.031578	-113.026436	0	0	0	1
-95.879242	-118.661850	-113.168381	0	0	0	1
-96.730492	-118.285004	-113.309502	0	0	0	1
-97.579681	-117.901047	-113.449791	0	0	0	1
-98.426727	-117.509979	-113.589264	0	0	0	1
-99.271584	-117.111824	-113.727890	0	0	0	1
-100.114166	-116.706589	-113.865677	0	0	0	1
-100.954430	-116.294273	-114.002617	0	0	0	1
-101.792297	-115.874893	-114.138702	0	0	0	1
-102.627686	-115.448471	-114.273941	0	0	0	1
-103.460548	-115.015015	-114.408302	0	0	0	1
-104.290810	-114.574539	-114.541794	0	0	0	1
-105.118408	-114.127060	-114.674423	0	0	0.41614682	0.90929743
-105.943275	-113.672592	-114.806168	0	0	0.41614682	0.90929743
-106.765343	-113.211151	-114.937027	0	0	0.41614682	0.90929743
-107.584549	-112.742744	-115.067001	0	0	0.41614682	0.90929743
-108.400818	-112.267410	-115.196083	0	0	0.41614682	0.90929743
-109.214096	-111.785141	-115.324257	0	0	0	1
-110.024307	-111.295982	-115.451530	0	0	0	1
-110.831390	-110.799934	-115.577896	0	0	0	1
-111.635277	-110.297035	-115.703339	0	0	0	1
-112.435898	-109.787292	-115.827873	0	0	0	1
-113.233200	-109.270729	-115.951469	0	0	0	1
-114.027107	-108.747368	-116.074142	0	0	0	1
-114.817558	-108.217239	-116.195885	0	0	0	1
-115.604485	-107.680359	-116.316689	0	0	0	1
-116.387833	-107.136749	-116.436546	0	0	0	1
-117.167519	-106.586456	-116.555458	0	0	0	1
-117.943489	-106.029480	-116.673409	0	0	0	1
-118.715691	-105.465858	-116.790413	0	0	0	1
-119.484039	-104.895615	-116.906448	0	0	0	1
-120.248489	-104.318779	-117.021515	0	0	0	1
-121.008949	-103.735390	-117.135612	0	0	0	1
-121.765396	-103.145462	-117.248734	0	0	0	1
-122.517731	-102.549042	-117.360870	0	0	0	1
-123.265907	-101.946136	-117.472023	0	0	0	1
-124.009857	-101.336800	-117.582191	0	0	0	1
-124.749527	-100.721054	-117.691368	0	0	0	1
-125.484848	-100.098930	-117.799538	0	0	0	1
-126.215752	-99.470467	-117.906700	0	0	0	1
-126.942192	-98.835693	-118.012871	0	0	0	1
-127.664101	-98.194641	-118.118019	0	0	0	1
-128.381409	-97.547363	-118.222168	0	0	0	1
-129.094070	-96.893875	-118.325279	0	0	0	1
-129.802002	-96.234230	-118.427376	0	0	0.32328956	0.94630009
-130.505188	-95.568443	-118.528450	0	0	0.32328956	0.94630009
-131.203522	-94.896576	-118.628479	0	0	0.32328956	0.94630009
-131.896957	-94.218651	-118.727486	0	0	0.32328956	0.94630009
-132.585449	-93.534721	-118.825455	0	0	0	1
-133.268921	-92.844826	-118.922371	0	0	0	1
-133.947342	-92.148987	-119.018242	0	0	0	1
-134.620621	-91.447258	-119.113068	0	0	0	1
-135.288727	-90.739693	-119.206841	0	0	0	1
-135.951584	-90.026314	-119.299553	0	0	0	1
-136.609131	-89.307167	-119.391205	0	0	0	1
-137.261337	-88.582306	-119.481789	0	0	0	1
-137.908142	-87.851761	-119.571304	0	0	0	1
-138.549469	-87.115601	-119.659744	0	0	0	1
-139.185272	-86.373848	-119.747116	0	0	0	1
-139.815506	-85.626549	-119.833397	0	0	0	1
-140.440109	-84.873772	-119.918610	0	0	0	1
-141.059036	-84.115540	-120.002724	0	0	0	1
-141.672211	-83.351913	-120.085754	0	0	0	1
-142.279602	-82.582939	-120.167694	0	0	0	1
-142.881165	-81.808662	-120.248535	0	0	0	1
-143.476807	-81.029137	-120.328278	0	0	0	1
-144.066528	-80.244408	-120.406921	0	0	0	1
-144.650238	-79.454529	-120.484451	0	0	0	1
-145.227905	-78.659554	-120.560883	0	0	0	1
-145.799484	-77.859535	-120.636200	0	0	0	1
-146.364899	-77.054512	-120.710396	0	0	0	1
-146.924133	-76.244553	-120.783485	0	0	0	1
-147.477112	-75.429703	-120.855446	0	0	0	1
-148.023804	-74.610016	-120.926285	0	0	0	1
-148.564163	-73.785553	-120.996002	0	0	0	1
-149.098129	-72.956360	-121.064590	0	0	0	1
-149.625656	-72.122498	-121.132042	0	0	0.22720209	0.97384763
-150.146713	-71.284027	-121.198357	0	0	0.22720209	0.97384763
-150.661240	-70.440987	-121.263550	0	0	0.22720209	0.97384763
-151.169205	-69.593452	-121.327591	0	0	0	1
-151.670563	-68.741470	-121.390495	0	0	0	1
-152.165253	-67.885101	-121.452263	0	0	0	1
-152.653244	-67.024406	-121.512863	0	0	0	1
-153.134491	-66.159439	-121.572327	0	0	0	1
-153.608963	-65.290268	-121.630653	0	0	0	1
-154.076599	-64.416946	-121.687798	0	0	0	1
-154.537369	-63.539524	-121.743813	0	0	0	1
-154.991241	-62.658077	-121.798645	0	0	0	1
-155.438171	-61.772663	-121.852341	0	0	0	1
-155.878098	-60.883339	-121.904854	0	0	0	1
-156.311020	-59.990170	-121.956215	0	0	0	1
-156.736862	-59.093216	-122.006401	0	0	0	1
-157.155624	-58.192543	-122.055435	0	0	0	1
-157.567245	-57.288212	-122.103279	0	0	0	1
-157.971695	-56.380283	-122.149963	0	0	0	1
-158.368942	-55.468826	-122.195473	0	0	0	1
-158.758942	-54.553905	-122.239799	0	0	0	1
-159.141678	-53.635582	-122.282951	0	0	0	1
-159.517105	-52.713917	-122.324928	0	0	0	1
-159.885178	-51.788982	-122.365715	0	0	0	1
-160.245895	-50.860844	-122.405327	0	0	0	1
-160.599197	-49.929558	-122.443748	0	0	0	1
-160.945068	-48.995205	-122.480988	0	0	0	1
-161.283478	-48.057838	-122.517036	0	0	0	1
-161.614395	-47.117538	-122.551903	0	0	0	1
-161.937790	-46.174366	-122.585579	0	0	0	1
-162.253632	-45.228382	-122.618065	0	0	0	1
-162.561905	-44.279659	-122.649353	0	0	0.1288445	0.99166481
-162.862564	-43.328274	-122.679443	0	0	0.1288445	0.99166481
-163.155594	-42.374287	-122.708351	0	0	0.1288445	0.99166481
-163.440979	-41.417763	-122.736046	0	0	0	1
-163.718674	-40.458778	-122.762558	0	0	0	1
-163.988663	-39.497402	-122.787865	0	0	0	1
-164.250931	-38.533699	-122.811974	0	0	0	1
-164.505447	-37.567741	-122.834892	0	0	0	1
-164.752197	-36.599598	-122.856590	0	0	0	1
-164.991150	-35.629341	-122.877106	0	0	0	1
-165.222305	-34.657043	-122.896408	0	0	0	1
-165.445618	-33.682770	-122.914505	0	0	0	1
-165.661072	-32.706593	-122.931404	0	0	0	1
-165.868668	-31.728586	-122.947090	0	0	0	1
-166.068359	-30.748819	-122.961571	0	0	0	1
-166.260162	-29.767363	-122.974846	0	0	0	1
-166.444046	-28.784288	-122.986916	0	0	0	1
-166.619995	-27.799671	-122.997787	0	0	0	1
-166.787994	-26.813580	-123.007454	0	0	0	1
-166.948029	-25.826088	-123.015900	0	0	0	1
-167.100098	-24.837267	-123.023140	0	0	0	1
-167.244171	-23.847187	-123.029160	0	0	0	1
-167.380234	-22.855928	-123.033989	0	0	0	1
-167.508301	-21.863556	-123.037605	0	0	0	1
-167.628342	-20.870144	-123.040009	0	0	0	1
-167.740356	-19.875767	-123.041206	0	0	0	1
-167.844330	-18.880497	-123.041191	0	0	0	1
-167.940247	-17.884407	-123.039963	0	0	0	1
-168.011475	-17.085783	-123.037247	0	0	0	1
-168.059906	-16.508497	-123.032982	0	0	0	1
-168.105545	-15.930959	-123.027512	0	0	0	1
-168.148407	-15.353174	-123.020828	0	0	0	1
-168.188477	-14.775149	-123.012939	0	0	0.029199523	0.9995736
-168.225769	-14.196893	-123.003838	0	0	0.029199523	0.9995736
-168.260284	-13.618410	-122.993538	0	0	0.029199523	0.9995736
-168.291992	-13.039708	-122.982018	0	0	0.029199523	0.9995736
-168.320923	-12.460794	-122.969299	0	0	0.029199523	0.9995736
-168.347061	-11.881676	-122.955383	0	0	0.029199523	0.9995736
-168.370392	-11.302360	-122.940239	0	0	0.029199523	0.9995736
-168.390945	-10.722852	-122.923912	0	0	0.029199523	0.9995736
-168.408691	-10.143160	-122.906364	0	0	0.029199523	0.9995736
-168.423630	-9.563291	-122.887619	0	0	0.029199523	0.9995736
-168.435776	-8.983252	-122.867668	0	0	0.029199523	0.9995736
-168.445129	-8.403049	-122.846519	0	0	0.029199523	0.9995736
-168.451660	-7.822690	-122.824158	0	0	0.029199523	0.9995736
-168.455383	-7.242182	-122.800613	0	0	0.029199523	0.9995736
-168.456314	-6.661532	-122.775848	0	0	0.029199523	0.9995736
-168.454407	-6.080747	-122.749901	0	0	0.029199523	0.9995736
-168.449707	-5.499835	-122.722755	0	0	0.029199523	0.9995736
-168.442169	-4.918802	-122.694397	0	0	0.029199523	0.9995736
-168.431824	-4.337656	-122.664864	0	0	0.029199523	0.9995736
-168.418640	-3.756405	-122.634125	0	0	0.029199523	0.9995736
-168.402649	-3.175056	-122.602196	0	0	0.029199523	0.9995736
-168.383804	-2.593614	-122.569077	0	0	0.029199523	0.9995736
-168.362137	-2.012090	-122.534760	0	0	0.029199523	0.9995736
-168.337631	-1.430490	-122.499252	0	0	0.029199523	0.9995736
-168.310303	-0.848821	-122.462563	0	0	0.029199523	0.9995736
-168.280106	-0.267092	-122.424683	0	0	0.029199523	0.9995736
-168.247070	0.314690	-122.385628	0	0	0.029199523	0.9995736
-168.211197	0.896518	-122.345375	0	0	0.029199523	0.9995736
-168.172455	1.478383	-122.303955	0	0	0.029199523	0.9995736
-168.130859	2.060278	-122.261345	0	0	0.029199523	0.9995736
-168.086411	2.642194	-122.217560	0	0	0.029199523	0.9995736
-168.039078	3.224124	-122.172600	0	0	0.029199523	0.9995736
-167.988892	3.806059	-122.126465	0	0	-0.070737201	0.99749499
-167.935837	4.387994	-122.079147	0	0	-0.070737201	0.99749499
-167.879883	4.969916	-122.030663	0	0	-0.070737201	0.99749499
-167.821060	5.551818	-121.981010	0	0	-0.070737201	0.99749499
-167.759354	6.133693	-121.930191	0	0	-0.070737201	0.99749499
-167.694763	6.715531	-121.878212	0	0	-0.070737201	0.99749499
-167.627274	7.297325	-121.825073	0	0	-0.070737201	0.99749499
-167.556885	7.879066	-121.770760	0	0	-0.070737201	0.99749499
-167.483582	8.460745	-121.715294	0	0	-0.070737201	0.99749499
-167.407394	9.042353	-121.658669	0	0	-0.070737201	0.99749499
-167.328278	9.623882	-121.600876	0	0	-0.070737201	0.99749499
-167.246246	10.205319	-121.541954	0	0	-0.070737201	0.99749499
-167.161301	10.786661	-121.481865	0	0	-0.070737201	0.99749499
-167.073425	11.367896	-121.420631	0	0	-0.070737201	0.99749499
-166.982605	11.949013	-121.358261	0	0	-0.070737201	0.99749499
-166.888870	12.530005	-121.294739	0	0	-0.070737201	0.99749499
-166.792175	13.110860	-121.230095	0	0	-0.070737201	0.99749499
-166.692551	13.691572	-121.164291	0	0	-0.070737201	0.99749499
-166.589966	14.272127	-121.097366	0	0	-0.070737201	0.99749499
-166.484436	14.852519	-121.029297	0	0	-0.070737201	0.99749499
-166.375931	15.432735	-120.960098	0	0	-0.070737201	0.99749499
-166.264465	16.012770	-120.889778	0	0	-0.070737201	0.99749499
-166.150024	16.592606	-120.818329	0	0	-0.070737201	0.99749499
-166.032608	17.172237	-120.745766	0	0	-0.070737201	0.99749499
-165.912216	17.751656	-120.672081	0	0	-0.070737201	0.99749499
-165.788834	18.330845	-120.597282	0	0	-0.070737201	0.99749499
-165.662460	18.909801	-120.521362	0	0	-0.070737201	0.99749499
-165.533081	19.488508	-120.444344	0	0	-0.070737201	0.99749499
-165.400711	20.066957	-120.366211	0	0	-0.070737201	0.99749499
-165.265320	20.645136	-120.286980	0	0	-0.070737201	0.99749499
-165.126923	21.223036	-120.206642	0	0	-0.070737201	0.99749499
-164.985489	21.800642	-120.125206	0	0	-0.070737201	0.99749499
-164.841049	22.377949	-120.042671	0	0	-0.070737201	0.99749499
-164.693558	22.954937	-119.959068	0	0	-0.070737201	0.99749499
-164.543045	23.531603	-119.874352	0	0	-0.070737201	0.99749499
-164.389481	24.107929	-119.788567	0	0	-0.070737201	0.99749499
-164.232880	24.683903	-119.701698	0	0	-0.070737201	0.99749499
-164.073212	25.259516	-119.613754	0	0	-0.070737201	0.99749499
-163.910492	25.834759	-119.524727	0	0	-0.070737201	0.99749499
-163.744705	26.409611	-119.434639	0	0	-0.070737201	0.99749499
-163.575851	26.984068	-119.343468	0	0	-0.070737201	0.99749499
-163.403915	27.558111	-119.251259	0	0	-0.070737201	0.99749499
-163.228897	28.131733	-119.157967	0	0	-0.070737201	0.99749499
-163.050797	28.704916	-119.063629	0	0	-0.070737201	0.99749499
-162.869598	29.277647	-118.968246	0	0	-0.070737201	0.99749499
-162.685303	29.849918	-118.871803	0	0	-0.070737201	0.99749499
-162.497894	30.421711	-118.774315	0	0	-0.070737201	0.99749499
-162.307373	30.993015	-118.675797	0	0	-0.070737201	0.99749499
-162.113754	31.563816	-118.576225	0	0	-0.070737201	0.99749499
-161.916992	32.134098	-118.475639	0	0	-0.070737201	0.99749499
-161.717117	32.703850	-118.374016	0	0	-0.070737201	0.99749499
-161.514099	33.273060	-118.271362	0	0	-0.070737201	0.99749499
-161.307938	33.841702	-118.167694	0	0	-0.070737201	0.99749499
-161.098648	34.409779	-118.063004	0	0	-0.070737201	0.99749499
-160.886200	34.977264	-117.957314	0	0	-0.070737201	0.99749499
-160.670593	35.544151	-117.850594	0	0	-0.070737201	0.99749499
-160.451828	36.110413	-117.742889	0	0	-0.070737201	0.99749499
-160.229889	36.676048	-117.634178	0	0	-0.070737201	0.99749499
-160.004791	37.241035	-117.524460	0	0	-0.070737201	0.99749499
-159.776505	37.805359	-117.413765	0	0	-0.070737201	0.99749499
-159.545029	38.369003	-117.302078	0	0	-0.070737201	0.99749499
-159.310379	38.931957	-117.189407	0	0	-0.070737201	0.99749499
-159.072525	39.494202	-117.075760	0	0	-0.070737201	0.99749499
-158.831482	40.055717	-116.961136	0	0	-0.070737201	0.99749499
-158.587234	40.616497	-116.845551	0	0	-0.070737201	0.99749499
-158.339767	41.176510	-116.728996	0	0	-0.070737201	0.99749499
-158.089096	41.735760	-116.611473	0	0	-0.070737201	0.99749499
-157.835190	42.294212	-116.493004	0	0	-0.070737201	0.99749499
-157.578079	42.851864	-116.373589	0	0	-0.070737201	0.99749499
-157.317719	43.408688	-116.253220	0	0	-0.070737201	0.99749499
-157.054138	43.964672	-116.131905	0	0	-0.070737201	0.99749499
-156.787308	44.519798	-116.009659	0	0	-0.070737201	0.99749499
-156.517242	45.074047	-115.886482	0	0	-0.070737201	0.99749499
-156.243927	45.627407	-115.762375	0	0	-0.070737201	0.99749499
-155.967361	46.179855	-115.637352	0	0	-0.070737201	0.99749499
-155.687531	46.731373	-115.511406	0	0	-0.070737201	0.99749499
-155.404434	47.281948	-115.384552	0	0	-0.070737201	0.99749499
-155.118088	47.831558	-115.256790	0	0	-0.070737201	0.99749499
-154.828445	48.380192	-115.128128	0	0	-0.070737201	0.99749499
-154.535553	48.927822	-114.998558	0	0	-0.070737201	0.99749499
-154.239365	49.474434	-114.868111	0	0	-0.070737201	0.99749499
-153.939896	50.020008	-114.736771	0	0	-0.070737201	0.99749499
-153.637146	50.564522	-114.604546	0	0	-0.070737201	0.99749499
-153.331100	51.107964	-114.471451	0	0	-0.070737201	0.99749499
-153.021774	51.650311	-114.337479	0	0	-0.070737201	0.99749499
-152.709137	52.191544	-114.202652	0	0	-0.070737201	0.99749499
-152.393204	52.731644	-114.066948	0	0	-0.070737201	0.99749499
-152.073959	53.270588	-113.930405	0	0	-0.070737201	0.99749499
-151.751404	53.808365	-113.793007	0	0	-0.070737201	0.99749499
-151.425537	54.344940	-113.654762	0	0	-0.070737201	0.99749499
-151.096359	54.880314	-113.515678	0	0	-0.070737201	0.99749499
-150.763870	55.414448	-113.375763	0	0	-0.070737201	0.99749499
-150.428055	55.947330	-113.235016	0	0	-0.070737201	0.99749499
-150.088913	56.478939	-113.093452	0	0	-0.070737201	0.99749499
-149.746460	57.009254	-112.951073	0	0	-0.070737201	0.99749499
-149.400665	57.538254	-112.807884	0	0	-0.070737201	0.99749499
-149.051544	58.065910	-112.663887	0	0	-0.070737201	0.99749499
-148.699081	58.592216	-112.519081	0	0	-0.070737201	0.99749499
-148.343292	59.117142	-112.373489	0	0	-0.070737201	0.99749499
-147.984177	59.640667	-112.227112	0	0	-0.070737201	0.99749499
-147.621704	60.162773	-112.079948	0	0	-0.070737201	0.99749499
-147.255905	60.683430	-111.932007	0	0	-0.070737201	0.99749499
-146.886765	61.202625	-111.783302	0	0	-0.070737201	0.99749499
-146.514267	61.720333	-111.633827	0	0	-0.070737201	0.99749499
-146.138443	62.236530	-111.483597	0	0	-0.070737201	0.99749499
-145.759262	62.751198	-111.332603	0	0	-0.070737201	0.99749499
-145.376740	63.264309	-111.180870	0	0	-0.070737201	0.99749499
-144.990875	63.775845	-111.028397	0	0	-0.070737201	0.99749499
-144.601654	64.285782	-110.875191	0	0	-0.070737201	0.99749499
-144.209091	64.794090	-110.721252	0	0	-0.070737201	0.99749499
-143.813187	65.300758	-110.566589	0	0	-0.070737201	0.99749499
-143.413925	65.805763	-110.411209	0	0	-0.070737201	0.99749499
-143.011322	66.309067	-110.255119	0	0	-0.070737201	0.99749499
-142.605362	66.810661	-110.098328	0	0	-0.070737201	0.99749499
-142.196075	67.310509	-109.940834	0	0	-0.070737201	0.99749499
-141.783432	67.808609	-109.782654	0	0	-0.070737201	0.99749499
-141.367432	68.304909	-109.623787	0	0	-0.070737201	0.99749499
-140.948105	68.799408	-109.464233	0	0	-0.070737201	0.99749499
-140.525421	69.292068	-109.304008	0	0	-0.070737201	0.99749499
-140.099411	69.782875	-109.143120	0	0	-0.070737201	0.99749499
-139.670059	70.271797	-108.981567	0	0	-0.070737201	0.99749499
-139.237366	70.758812	-108.819366	0	0	-0.070737201	0.99749499
-138.801331	71.243904	-108.656509	0	0	-0.16996714	0.98544973
-138.361969	71.727036	-108.493019	0	0	-0.16996714	0.98544973
-137.919266	72.208183	-108.328888	0	0	-0.16996714	0.98544973
-137.473236	72.687332	-108.164131	0	0	-0.16996714	0.98544973
-137.023895	73.164452	-107.998756	0	0	-0.16996714	0.98544973
-136.571213	73.639511	-107.832756	0	0	-0.16996714	0.98544973
-136.115219	74.112495	-107.666153	0	0	-0.16996714	0.98544973
-135.655914	74.583374	-107.498947	0	0	-0.16996714	0.98544973
-135.193298	75.052116	-107.331146	0	0	-0.16996714	0.98544973
-134.727356	75.518707	-107.162758	0	0	-0.16996714	0.98544973
-134.258118	75.983124	-106.993782	0	0	-0.16996714	0.98544973
-133.785583	76.445328	-106.824234	0	0	-0.16996714	0.98544973
-133.309753	76.905296	-106.654121	0	0	-0.16996714	0.98544973
-132.830627	77.363014	-106.483437	0	0	-0.16996714	0.98544973
-132.348221	77.818443	-106.312202	0	0	-0.16996714	0.98544973
-131.862534	78.271561	-106.140419	0	0	-0.16996714	0.98544973
-131.373566	78.722343	-105.968086	0	0	-0.16996714	0.98544973
-130.881332	79.170769	-105.795227	0	0	-0.16996714	0.98544973
-130.385834	79.616798	-105.621834	0	0	-0.16996714	0.98544973
-129.887070	80.060425	-105.447922	0	0	-0.16996714	0.98544973
-129.385071	80.501602	-105.273499	0	0	-0.16996714	0.98544973
-128.879822	80.940308	-105.098557	0	0	-0.16996714	0.98544973
-128.371323	81.376534	-104.923126	0	0	-0.16996714	0.98544973
-127.859604	81.810226	-104.747200	0	0	-0.16996714	0.98544973
-127.344658	82.241379	-104.570770	0	0	-0.16996714	0.98544973
-126.826500	82.669960	-104.393883	0	0	-0.16996714	0.98544973
-126.305130	83.095940	-104.216515	0	0	-0.16996714	0.98544973
-125.780563	83.519279	-104.038673	0	0	-0.16996714	0.98544973
-125.252800	83.939987	-103.860382	0	0	-0.16996714	0.98544973
-124.721855	84.358002	-103.681633	0	0	-0.16996714	0.98544973
-124.187737	84.773315	-103.502441	0	0	-0.16996714	0.98544973
-123.650459	85.185883	-103.322807	0	0	-0.16996714	0.98544973
-123.110023	85.595703	-103.142746	0	0	-0.16996714	0.98544973
-122.566437	86.002724	-102.962265	0	0	-0.16996714	0.98544973
-122.019714	86.406937	-102.781357	0	0	-0.16996714	0.98544973
-121.469872	86.808304	-102.600052	0	0	-0.16996714	0.98544973
-120.916908	87.206802	-102.418335	0	0	-0.16996714	0.98544973
-120.360847	87.602402	-102.236229	0	0	-0.16996714	0.98544973
-119.801682	87.995079	-102.053734	0	0	-0.16996714	0.98544973
-119.239441	88.384804	-101.870850	0	0	-0.16996714	0.98544973
-118.674133	88.771553	-101.687599	0	0	-0.16996714	0.98544973
-118.105751	89.155296	-101.503990	0	0	-0.16996714	0.98544973
-117.534332	89.536003	-101.320007	0	0	-0.16996714	0.98544973
-116.959877	89.913651	-101.135689	0	0	-0.16996714	0.98544973
-116.382401	90.288208	-100.951004	0	0	-0.16996714	0.98544973
-115.801910	90.659660	-100.765999	0	0	-0.16996714	0.98544973
-115.218430	91.027962	-100.580658	0	0	-0.16996714	0.98544973
-114.631966	91.393097	-100.394997	0	0	-0.16996714	0.98544973
-114.042526	91.755035	-100.209015	0	0	-0.16996714	0.98544973
-113.450134	92.113754	-100.022736	0	0	-0.16996714	0.98544973
-112.854805	92.469215	-99.836143	0	0	-0.16996714	0.98544973
-112.256546	92.821404	-99.649269	0	0	-0.16996714	0.98544973
-111.655373	93.170280	-99.462105	0	0	-0.16996714	0.98544973
-111.051308	93.515823	-99.274658	0	0	-0.16996714	0.98544973
-110.444359	93.858009	-99.086945	0	0	-0.16996714	0.98544973
-109.834541	94.196815	-98.898972	0	0	-0.16996714	0.98544973
-109.221878	94.532196	-98.710732	0	0	-0.16996714	0.98544973
-108.607399	94.867416	-98.517357	0	0	-0.16996714	0.98544973
-107.990982	95.202209	-98.319206	0	0	-0.16996714	0.98544973
-107.371681	95.533516	-98.120850	0	0	-0.16996714	0.98544973
-106.749519	95.861305	-97.922287	0	0	-0.16996714	0.98544973
-106.124504	96.185562	-97.723526	0	0	-0.16996714	0.98544973
-105.496658	96.506241	-97.524574	0	0	-0.16996714	0.98544973
-104.865997	96.823326	-97.325455	0	0	-0.16996714	0.98544973
-104.232544	97.136787	-97.126152	0	0	-0.16996714	0.98544973
-103.596306	97.446587	-96.926682	0	0	-0.16996714	0.98544973
-102.957321	97.752708	-96.727066	0	0	-0.16996714	0.98544973
-102.315590	98.055122	-96.527283	0	0	-0.16996714	0.98544973
-101.671143	98.353798	-96.327370	0	0	-0.26749883	0.96355818
-101.023994	98.648712	-96.127319	0	0	-0.26749883	0.96355818
-100.374161	98.939835	-95.927147	0	0	-0.26749883	0.96355818
-99.721680	99.227142	-95.726860	0	0	-0.26749883	0.96355818
-99.066551	99.510590	-95.526451	0	0	-0.26749883	0.96355818
-98.408813	99.790176	-95.325958	0	0	-0.26749883	0.96355818
-97.748474	100.065865	-95.125366	0	0	-0.26749883	0.96355818
-97.085564	100.337616	-94.924683	0	0	-0.26749883	0.96355818
-96.420097	100.605415	-94.723923	0	0	-0.26749883	0.96355818
-95.752106	100.869240	-94.523087	0	0	-0.26749883	0.96355818
-95.081604	101.129051	-94.322189	0	0	-0.26749883	0.96355818
-94.408615	101.384827	-94.121246	0	0	-0.26749883	0.96355818
-93.733170	101.636551	-93.920250	0	0	-0.26749883	0.96355818
-93.055283	101.884178	-93.719215	0	0	-0.26749883	0.96355818
-92.374977	102.127701	-93.518166	0	0	-0.26749883	0.96355818
-91.692291	102.367081	-93.317078	0	0	-0.26749883	0.96355818
-91.007233	102.602295	-93.115974	0	0	-0.26749883	0.96355818
-90.319839	102.833321	-92.914864	0	0	-0.26749883	0.96355818
-89.630119	103.060135	-92.713768	0	0	-0.26749883	0.96355818
-88.938118	103.282700	-92.512665	0	0	-0.26749883	0.96355818
-88.243851	103.500999	-92.311584	0	0	-0.26749883	0.96355818
-87.547340	103.715004	-92.110535	0	0	-0.26749883	0.96355818
-86.848618	103.924690	-91.909515	0	0	-0.26749883	0.96355818
-86.147705	104.130035	-91.708534	0	0	-0.26749883	0.96355818
-85.444633	104.331024	-91.507607	0	0	-0.26749883	0.96355818
-84.739433	104.527611	-91.306732	0	0	-0.26749883	0.96355818
-84.032120	104.719780	-91.105927	0	0	-0.26749883	0.96355818
-83.322731	104.907516	-90.905190	0	0	-0.26749883	0.96355818
-82.611298	105.090782	-90.704536	0	0	-0.26749883	0.96355818
-81.897835	105.269554	-90.503960	0	0	-0.26749883	0.96355818
-81.182381	105.443825	-90.303497	0	0	-0.26749883	0.96355818
-80.464966	105.613556	-90.103127	0	0	-0.26749883	0.96355818
-79.745613	105.778725	-89.902870	0	0	-0.26749883	0.96355818
-79.024353	105.939316	-89.702744	0	0	-0.26749883	0.96355818
-78.301216	106.095299	-89.502731	0	0	-0.26749883	0.96355818
-77.576233	106.246658	-89.302864	0	0	-0.26749883	0.96355818
-76.849426	106.393364	-89.103142	0	0	-0.26749883	0.96355818
-76.120842	106.535393	-88.903572	0	0	-0.26749883	0.96355818
-75.390503	106.672729	-88.704155	0	0	-0.26749883	0.96355818
-74.658432	106.805351	-88.504906	0	0	-0.26749883	0.96355818
-73.924675	106.933228	-88.305832	0	0	-0.26749883	0.96355818
-73.189255	107.056351	-88.106949	0	0	-0.26749883	0.96355818
-72.452202	107.174690	-87.908241	0	0	-0.26749883	0.96355818
-71.713554	107.288223	-87.709747	0	0	-0.26749883	0.96355818
-70.973343	107.396942	-87.511459	0	0	-0.26749883	0.96355818
-70.231598	107.500809	-87.313377	0	0	-0.26749883	0.96355818
-69.488350	107.599815	-87.115532	0	0	-0.26749883	0.96355818
-68.743645	107.693932	-86.917900	0	0	-0.26749883	0.96355818
-67.997498	107.783142	-86.720520	0	0	-0.26749883	0.96355818
-67.249954	107.867439	-86.523376	0	0	-0.36235775	0.93203909
-66.501053	107.946785	-86.326492	0	0	-0.36235775	0.93203909
-65.750809	108.021164	-86.129860	0	0	-0.36235775	0.93203909
-64.999275	108.090569	-85.933502	0	0	-0.36235775	0.93203909
-64.246483	108.154968	-85.737427	0	0	-0.36235775	0.93203909
-63.492458	108.214355	-85.541634	0	0	-0.36235775	0.93203909
-62.737247	108.268700	-85.346130	0	0	-0.36235775	0.93203909
-61.980877	108.317993	-85.150932	0	0	-0.36235775	0.93203909
-61.223385	108.362213	-84.956032	0	0	-0.36235775	0.93203909
-60.464813	108.401344	-84.761459	0	0	-0.36235775	0.93203909
-59.705189	108.435371	-84.567200	0	0	-0.36235775	0.93203909
-58.944557	108.464272	-84.373276	0	0	-0.36235775	0.93203909
-58.182949	108.488029	-84.179688	0	0	-0.36235775	0.93203909
-57.420403	108.506638	-83.986443	0	0	-0.36235775	0.93203909
-56.656956	108.520073	-83.793556	0	0	-0.36235775	0.93203909
-55.892643	108.528320	-83.601028	0	0	-0.36235775	0.93203909
-55.127510	108.531364	-83.408875	0	0	-0.36235775	0.93203909
-54.361584	108.529190	-83.217102	0	0	-0.36235775	0.93203909
-53.594910	108.521790	-83.025711	0	0	-0.36235775	0.93203909
-52.827522	108.509140	-82.834709	0	0	-0.36235775	0.93203909
-52.059464	108.491226	-82.644096	0	0	-0.36235775	0.93203909
-51.290768	108.468033	-82.453896	0	0	-0.36235775	0.93203909
-50.521477	108.439568	-82.264122	0	0	-0.36235775	0.93203909
-49.751629	108.405792	-82.074745	0	0	-0.36235775	0.93203909
-48.981262	108.366699	-81.885811	0	0	-0.36235775	0.93203909
-48.210419	108.322289	-81.697319	0	0	-0.36235775	0.93203909
-47.439137	108.272537	-81.509262	0	0	-0.36235775	0.93203909
-46.667458	108.217438	-81.321678	0	0	-0.36235775	0.93203909
-45.895416	108.156967	-81.134529	0	0	-0.36235775	0.93203909
-45.123058	108.091133	-80.947861	0	0	-0.36235775	0.93203909
-44.350422	108.019913	-80.761658	0	0	-0.36235775	0.93203909
-43.577549	107.943298	-80.575928	0	0	-0.36235775	0.93203909
-42.804478	107.861282	-80.390694	0	0	-0.36235775	0.93203909
-42.031250	107.773849	-80.205963	0	0	-0.36235775	0.93203909
-41.257912	107.680992	-80.021729	0	0	-0.36235775	0.93203909
-40.484497	107.582710	-79.838005	0	0	-0.36235775	0.93203909
-39.711052	107.478981	-79.654808	0	0	-0.36235775	0.93203909
-38.937611	107.369797	-79.472122	0	0	-0.45359611	0.89120736
-38.164223	107.255165	-79.289978	0	0	-0.45359611	0.89120736
-37.390930	107.135063	-79.108360	0	0	-0.45359611	0.89120736
-36.617775	107.009491	-78.927299	0	0	-0.45359611	0.89120736
-35.844791	106.878433	-78.746796	0	0	-0.45359611	0.89120736
-35.072033	106.741898	-78.566841	0	0	-0.45359611	0.89120736
-34.299534	106.599861	-78.387459	0	0	-0.45359611	0.89120736
-33.527340	106.452332	-78.208656	0	0	-0.45359611	0.89120736
-32.755493	106.299294	-78.030426	0	0	-0.45359611	0.89120736
-31.984035	106.140747	-77.852791	0	0	-0.45359611	0.89120736
-31.213015	105.976692	-77.675751	0	0	-0.45359611	0.89120736
-30.442469	105.807121	-77.499321	0	0	-0.45359611	0.89120736
-29.672440	105.632019	-77.323486	0	0	-0.45359611	0.89120736
-28.902975	105.451401	-77.148285	0	0	-0.45359611	0.89120736
-28.134115	105.265244	-76.973686	0	0	-0.45359611	0.89120736
-27.365908	105.073563	-76.799744	0	0	-0.45359611	0.89120736
-26.598391	104.876335	-76.626419	0	0	-0.45359611	0.89120736
-25.831614	104.673576	-76.453743	0	0	-0.45359611	0.89120736
-25.065620	104.465294	-76.281723	0	0	-0.45359611	0.89120736
-24.300447	104.251450	-76.110352	0	0	-0.45359611	0.89120736
-23.536146	104.032082	-75.939659	0	0	-0.45359611	0.89120736
-22.772757	103.807167	-75.769623	0	0	-0.45359611	0.89120736
-22.010323	103.576706	-75.600273	0	0	-0.45359611	0.89120736
-21.248890	103.340714	-75.431610	0	0	-0.45359611	0.89120736
-20.488506	103.099174	-75.263634	0	0	-0.45359611	0.89120736
-19.729208	102.852097	-75.096359	0	0	-0.45359611	0.89120736
-18.971056	102.599487	-74.929787	0	0	-0.45359611	0.89120736
-18.214073	102.341339	-74.763924	0	0	-0.45359611	0.89120736
-17.458317	102.077660	-74.598785	0	0	-0.45359611	0.89120736
-16.703821	101.808441	-74.434364	0	0	-0.54030229	0.84147099
-15.950653	101.533707	-74.270676	0	0	-0.54030229	0.84147099
-15.198833	101.253433	-74.107727	0	0	-0.54030229	0.84147099
-14.448416	100.967651	-73.945518	0	0	-0.54030229	0.84147099
-13.699447	100.676346	-73.784065	0	0	-0.54030229	0.84147099
-12.951971	100.379532	-73.623367	0	0	-0.54030229	0.84147099
-12.206030	100.077217	-73.463425	0	0	-0.54030229	0.84147099
-11.461672	99.769394	-73.304260	0	0	-0.54030229	0.84147099
-10.718943	99.456078	-73.145866	0	0	-0.54030229	0.84147099
-9.977879	99.137276	-72.988258	0	0	-0.54030229	0.84147099
-9.238539	98.812996	-72.831436	0	0	-0.54030229	0.84147099
-8.500951	98.483231	-72.675407	0	0	-0.54030229	0.84147099
-7.765178	98.148003	-72.520180	0	0	-0.54030229	0.84147099
-7.031247	97.807320	-72.365761	0	0	-0.54030229	0.84147099
-6.299217	97.461182	-72.212151	0	0	-0.54030229	0.84147099
-5.569128	97.109604	-72.059357	0	0	-0.54030229	0.84147099
-4.841022	96.752594	-71.907394	0	0	-0.54030229	0.84147099
-4.114953	96.390160	-71.756256	0	0	-0.54030229	0.84147099
-3.390951	96.022316	-71.605957	0	0	-0.54030229	0.84147099
-2.669070	95.649063	-71.456505	0	0	-0.54030229	0.84147099
-1.949360	95.270432	-71.307892	0	0	-0.54030229	0.84147099
-1.231855	94.886414	-71.160141	0	0	-0.54030229	0.84147099
-0.516604	94.497025	-71.013252	0	0	-0.54030229	0.84147099
-0.406087	94.286110	-70.720795	0	0	0	1
-1.010688	94.281563	-70.244408	0	0	-0.54030229	0.84147099
-1.634433	94.268074	-69.748466	0	0	0	1
-2.277712	94.244698	-69.232193	0	0	0	1
-2.940886	94.210449	-68.694801	0	0	0	1
-3.624296	94.164246	-68.135475	0	0	0	1
-4.328273	94.104904	-67.553352	0	0	-0.54030229	0.84147099
-5.053112	94.031197	-66.947578	0	0	-0.54030229	0.84147099
-5.799084	93.941750	-66.317253	0	0	-0.54030229	0.84147099
-6.566407	93.835144	-65.661461	0	0	0	1
-7.355274	93.709808	-64.979286	0	0	-0.45359611	0.89120736
-8.165819	93.564079	-64.269753	0	0	0	1
-8.998124	93.396172	-63.531902	0	0	0	1
-9.852168	93.204185	-62.764790	0	0	0	1
-10.727903	92.986076	-61.967403	0	0	0	1
-11.625143	92.739670	-61.138798	0	0	-0.45359611	0.89120736
-12.543634	92.462654	-60.277992	0	0	0	1
-13.482996	92.152557	-59.384029	0	0	0	1
-14.442704	91.806770	-58.455997	0	0	0	1
-15.422121	91.422516	-57.492992	0	0	0	1
-16.420408	90.996887	-56.494186	0	0	-0.36235775	0.93203909
-17.436577	90.526779	-55.458790	0	0	-0.36235775	0.93203909
-18.469423	90.008965	-54.386097	0	0	-0.36235775	0.93203909
-19.517529	89.440041	-53.275501	0	0	0	1
-20.579239	88.816452	-52.126495	0	0	-0.36235775	0.93203909
-21.652626	88.134529	-50.938725	0	0	-0.36235775	0.93203909
-22.735470	87.390450	-49.711990	0	0	0	1
-23.825289	86.580261	-48.446232	0	0	0	1
-24.919201	85.699951	-47.141682	0	0	-0.36235775	0.93203909
-26.014029	84.745415	-45.798733	0	0	0	1
-27.106186	83.712502	-44.418106	0	0	-0.26749883	0.96355818
-28.191704	82.597076	-43.000801	0	0	0	1
-29.266226	81.395012	-41.548145	0	0	-0.26749883	0.96355818
-30.324940	80.102272	-40.061867	0	0	-0.26749883	0.96355818
-31.362625	78.715004	-38.544102	0	0	-0.26749883	0.96355818
-32.373646	77.229500	-36.997383	0	0	-0.26749883	0.96355818
-33.351894	75.642372	-35.424782	0	0	-0.26749883	0.96355818
-34.290913	73.950569	-33.829819	0	0	0	1
-35.183804	72.151489	-32.216579	0	0	-0.26749883	0.96355818
-36.023350	70.243042	-30.589653	0	0	-0.16996714	0.98544973
-36.802013	68.223778	-28.954226	0	0	0	1
-37.512032	66.092964	-27.316013	0	0	-0.16996714	0.98544973
-38.145451	63.850666	-25.681276	0	0	-0.16996714	0.98544973
-38.694225	61.497894	-24.056841	0	0	0	1
-39.150356	59.036583	-22.449963	0	0	0	1
-40.140717	58.239006	-21.268595	0	0	0	1
-45.618229	69.294411	-22.584625	0	0	-0.16996714	0.98544973
-53.557919	85.319313	-24.492220	0	0	-0.16996714	0.98544973
-66.102242	110.637856	-27.506124	0	0	0	1
-88.894341	156.639786	-32.982170	0	0	-0.16996714	0.98544973
-143.166504	266.178772	-46.021629	0	0	-0.16996714	0.98544973
