221.831009	-371.983826	-307.965942	0	0	0	1
63.469021	-129.131348	-104.963501	0	0	0	1
45.457844	-102.146851	-82.253273	0	0	0	1
45.390640	-103.263344	-82.891808	0	0	0	1
45.310318	-104.380386	-83.528763	0	0	0	1
45.216858	-105.497810	-84.164093	0	0	0	1
45.110252	-106.615463	-84.797783	0	0	0	1
44.990486	-107.733185	-85.429810	0	0	0	1
44.857555	-108.850807	-86.060143	0	0	0	1
44.711449	-109.968185	-86.688759	0	0	0	1
44.552162	-111.085144	-87.315628	0	0	0	1
44.379692	-112.201530	-87.940735	0	0	0	1
44.194035	-113.317177	-88.564056	0	0	0	1
43.995197	-114.431938	-89.185555	0	0	0	1
43.783176	-115.545639	-89.805222	0	0	0	1
43.557980	-116.658127	-90.423012	0	0	0	1
43.319611	-117.769234	-91.038925	0	0	0	1
43.068077	-118.878815	-91.652916	0	0	0	1
42.803398	-119.986687	-92.264977	0	0	0	1
42.525581	-121.092705	-92.875069	0	0	0	1
42.234638	-122.196709	-93.483177	0	0	0	1
41.930592	-123.298538	-94.089279	0	0	0	1
41.613449	-124.398026	-94.693344	0	0	0	1
41.283245	-125.495018	-95.295357	0	0	0	1
40.939995	-126.589348	-95.895287	0	0	0	1
40.583721	-127.680870	-96.493103	0	0	0	1
40.214455	-128.769409	-97.088799	0	0	0	1
39.832218	-129.854828	-97.682343	0	0	0	1
39.437050	-130.936935	-98.273705	0	0	0	1
39.028976	-132.015610	-98.862877	0	0	0	1
38.608036	-133.090668	-99.449814	0	0	0	1
38.174259	-134.161972	-100.034515	0	0	0	1
37.727688	-135.229340	-100.616951	0	0	0	1
37.268364	-136.292633	-101.197090	0	0	0	1
36.796326	-137.351700	-101.774910	0	0	0	1
36.311619	-138.406372	-102.350403	0	0	0	1
35.814293	-139.456497	-102.923523	0	0	0	1
35.304386	-140.501923	-103.494278	0	0	0	1
34.781960	-141.542496	-104.062622	0	0	0	1
34.247059	-142.578049	-104.628532	0	0	0	1
33.699738	-143.608459	-105.191994	0	0	0	1
33.245613	-144.954987	-105.269798	0	0	0.80114363	0.59847213
32.791275	-146.347580	-105.269798	0	0	0.80114363	0.59847213
32.319473	-147.734344	-105.269798	0	0	0.85688874	0.51550139
31.830284	-149.115067	-105.269798	0	0	0.85688874	0.51550139
31.323784	-150.489532	-105.269798	0	0	0.85688874	0.51550139
30.800049	-151.857544	-105.269798	0	0	0.85688874	0.51550139
30.259165	-153.218842	-105.269798	0	0	0.85688874	0.51550139
29.701221	-154.573242	-105.269798	0	0	0.85688874	0.51550139
29.126299	-155.920532	-105.269798	0	0	0.85688874	0.51550139
28.534491	-157.260498	-105.269798	0	0	0.85688874	0.51550139
27.925896	-158.592896	-105.269798	0	0	0.85688874	0.51550139
27.300604	-159.917557	-105.269798	0	0	0.85688874	0.51550139
26.658714	-161.234268	-105.269798	0	0	0.90407214	0.42737988
26.000332	-162.542786	-105.269798	0	0	0.90407214	0.42737988
25.325558	-163.842941	-105.269798	0	0	0.90407214	0.42737988
24.634499	-165.134506	-105.269798	0	0	0.90407214	0.42737988
23.927263	-166.417297	-105.269798	0	0	0.90407214	0.42737988
23.203964	-167.691086	-105.269798	0	0	0.90407214	0.42737988
22.464716	-168.955688	-105.269798	0	0	0.90407214	0.42737988
21.709639	-170.210907	-105.269798	0	0	0.90407214	0.42737988
20.938843	-171.456543	-105.269798	0	0	0.90407214	0.42737988
20.152456	-172.692383	-105.269798	0	0	0.90407214	0.42737988
19.350605	-173.918243	-105.269798	0	0	0.90407214	0.42737988
18.533411	-175.133942	-105.269798	0	0	0.90407214	0.42737988
17.701004	-176.339264	-105.269798	0	0	0.90407214	0.42737988
16.853516	-177.534042	-105.269798	0	0	0.90407214	0.42737988
15.991085	-178.718063	-105.269798	0	0	0.90407214	0.42737988
15.113840	-179.891159	-105.269798	0	0	0.90407214	0.42737988
14.221925	-181.053146	-105.269798	0	0	0.90407214	0.42737988
13.315478	-182.203827	-105.269798	0	0	0.90407214	0.42737988
12.394643	-183.343033	-105.269798	0	0	0.90407214	0.42737988
11.459568	-184.470566	-105.269798	0	0	0.90407214	0.42737988
10.510396	-185.586273	-105.269798	0	0	0.90407214	0.42737988
9.547277	-186.689957	-105.269798	0	0	0.90407214	0.42737988
8.570370	-187.781448	-105.269798	0	0	0.90407214	0.42737988
7.579820	-188.860580	-105.269798	0	0	0.90407214	0.42737988
6.575788	-189.927185	-105.269798	0	0	0.90407214	0.42737988
5.558434	-190.981079	-105.269798	0	0	0.90407214	0.42737988
4.527918	-192.022110	-105.269798	0	0	0.90407214	0.42737988
3.484400	-193.050110	-105.269798	0	0	0.90407214	0.42737988
2.428046	-194.064911	-105.269798	0	0	0.90407214	0.42737988
1.359024	-195.066376	-105.269798	0	0	0.90407214	0.42737988
0.277502	-196.054306	-105.269798	0	0	0.90407214	0.42737988
-0.816348	-197.028580	-105.269798	0	0	0.90407214	0.42737988
-1.922356	-197.989029	-105.269798	0	0	0.90407214	0.42737988
-3.040345	-198.935501	-105.269798	0	0	0.90407214	0.42737988
-4.170138	-199.867859	-105.269798	0	0	0.90407214	0.42737988
-5.311560	-200.785934	-105.269798	0	0	0.90407214	0.42737988
-6.464426	-201.689606	-105.269798	0	0	0.90407214	0.42737988
-7.628559	-202.578705	-105.269798	0	0	0.90407214	0.42737988
-8.803771	-203.453110	-105.269798	0	0	0.90407214	0.42737988
-9.989878	-204.312683	-105.269798	0	0	0.90407214	0.42737988
-11.186694	-205.157288	-105.269798	0	0	0.90407214	0.42737988
-12.394028	-205.986786	-105.269798	0	0	0.90407214	0.42737988
-13.611691	-206.801041	-105.269798	0	0	0.90407214	0.42737988
-14.839488	-207.599930	-105.269798	0	0	0.90407214	0.42737988
-16.077229	-208.383331	-105.269798	0	0	0.90407214	0.42737988
-17.324715	-209.151108	-105.269798	0	0	0.90407214	0.42737988
-18.581751	-209.903152	-105.269798	0	0	0.90407214	0.42737988
-19.848137	-210.639343	-105.269798	0	0	0.90407214	0.42737988
-21.123676	-211.359573	-105.269798	0	0	0.90407214	0.42737988
-22.408163	-212.063705	-105.269798	0	0	0.90407214	0.42737988
-23.701397	-212.751633	-105.269798	0	0	0.90407214	0.42737988
-25.003176	-213.423279	-105.269798	0	0	0.90407214	0.42737988
-26.313288	-214.078491	-105.269798	0	0	0.90407214	0.42737988
-27.631531	-214.717209	-105.269798	0	0	0.90407214	0.42737988
-28.957697	-215.339294	-105.269798	0	0	0.90407214	0.42737988
-30.291576	-215.944672	-105.269798	0	0	0.90407214	0.42737988
-31.632956	-216.533234	-105.269798	0	0	0.90407214	0.42737988
-32.981628	-217.104904	-105.269798	0	0	0.90407214	0.42737988
-34.337376	-217.659576	-105.269798	0	0	0.90407214	0.42737988
-35.699982	-218.197174	-105.269798	0	0	0.85688874	0.51550139
-37.069244	-218.717606	-105.269798	0	0	0.85688874	0.51550139
-38.444935	-219.220779	-105.269798	0	0	0.85688874	0.51550139
-39.826836	-219.706635	-105.269798	0	0	0.85688874	0.51550139
-41.214741	-220.175095	-105.269798	0	0	0.85688874	0.51550139
-42.608414	-220.626053	-105.269798	0	0	0.85688874	0.51550139
-44.007652	-221.059479	-105.269798	0	0	0.85688874	0.51550139
-45.412220	-221.475296	-105.269798	0	0	0.85688874	0.51550139
-46.821907	-221.873413	-105.269798	0	0	0.85688874	0.51550139
-48.236481	-222.253799	-105.269798	0	0	0.85688874	0.51550139
-49.655724	-222.616379	-105.269798	0	0	0.85688874	0.51550139
-51.079414	-222.961090	-105.269798	0	0	0.85688874	0.51550139
-52.507320	-223.287872	-105.269798	0	0	0.85688874	0.51550139
-53.939220	-223.596695	-105.269798	0	0	0.85688874	0.51550139
-55.374893	-223.887512	-105.269798	0	0	0.85688874	0.51550139
-56.814102	-224.160248	-105.269798	0	0	0.85688874	0.51550139
-58.256626	-224.414886	-105.269798	0	0	0.85688874	0.51550139
-59.702232	-224.651382	-105.269798	0	0	0.85688874	0.51550139
-61.150700	-224.869690	-105.269798	0	0	0.85688874	0.51550139
-62.601799	-225.069778	-105.269798	0	0	0.85688874	0.51550139
-64.055290	-225.251602	-105.269798	0	0	0.85688874	0.51550139
-65.510956	-225.415161	-105.269798	0	0	0.85688874	0.51550139
-66.968559	-225.560410	-105.269798	0	0	0.85688874	0.51550139
-68.427879	-225.687347	-105.269798	0	0	0.85688874	0.51550139
-69.888672	-225.795914	-105.269798	0	0	0.85688874	0.51550139
-71.350723	-225.886124	-105.269798	0	0	0.85688874	0.51550139
-72.813782	-225.957962	-105.269798	0	0	0.85688874	0.51550139
-74.277634	-226.011398	-105.269798	0	0	0.85688874	0.51550139
-75.742043	-226.046448	-105.269798	0	0	0.85688874	0.51550139
-77.206772	-226.063080	-105.269798	0	0	0.85688874	0.51550139
-78.671593	-226.061325	-105.269798	0	0	0.85688874	0.51550139
-80.136284	-226.041138	-105.269798	0	0	0.85688874	0.51550139
-81.600601	-226.002563	-105.269798	0	0	0.85688874	0.51550139
-83.064316	-225.945587	-105.269798	0	0	0.85688874	0.51550139
-84.527199	-225.870224	-105.269798	0	0	0.80114363	0.59847213
-85.989029	-225.776474	-105.269798	0	0	0.80114363	0.59847213
-87.449554	-225.664368	-105.269798	0	0	0.80114363	0.59847213
-88.908562	-225.533920	-105.269798	0	0	0.80114363	0.59847213
-90.365814	-225.385147	-105.269798	0	0	0.80114363	0.59847213
-91.821083	-225.218079	-105.269798	0	0	0.80114363	0.59847213
-93.274132	-225.032730	-105.269798	0	0	0.80114363	0.59847213
-94.724739	-224.829147	-105.269798	0	0	0.80114363	0.59847213
-96.172676	-224.607346	-105.269798	0	0	0.80114363	0.59847213
-97.617714	-224.367355	-105.269798	0	0	0.80114363	0.59847213
-99.059616	-224.109238	-105.269798	0	0	0.80114363	0.59847213
-100.498161	-223.833023	-105.269798	0	0	0.80114363	0.59847213
-101.933121	-223.538757	-105.269798	0	0	0.80114363	0.59847213
-103.364273	-223.226471	-105.269798	0	0	0.80114363	0.59847213
-104.791389	-222.896225	-105.269798	0	0	0.80114363	0.59847213
-106.214241	-222.548080	-105.269798	0	0	0.80114363	0.59847213
-107.632607	-222.182083	-105.269798	0	0	0.80114363	0.59847213
-109.046257	-221.798279	-105.269798	0	0	0.80114363	0.59847213
-110.454979	-221.396759	-105.269798	0	0	0.80114363	0.59847213
-111.858536	-220.977554	-105.269798	0	0	0.80114363	0.59847213
-113.256721	-220.540756	-105.269798	0	0	0.80114363	0.59847213
-114.649307	-220.086426	-105.269798	0	0	0.80114363	0.59847213
-116.036072	-219.614624	-105.269798	0	0	0.80114363	0.59847213
-117.416801	-219.125427	-105.269798	0	0	0.80114363	0.59847213
-118.791267	-218.618927	-105.269798	0	0	0.80114363	0.59847213
-120.159264	-218.095200	-105.269798	0	0	0.80114363	0.59847213
-121.520576	-217.554306	-105.269798	0	0	0.80114363	0.59847213
-122.874985	-216.996368	-105.269798	0	0	0.80114363	0.59847213
-124.222260	-216.421448	-105.269798	0	0	0.80114363	0.59847213
-125.562225	-215.829636	-105.269798	0	0	0.80114363	0.59847213
-126.894630	-215.221039	-105.269798	0	0	0.80114363	0.59847213
-128.219299	-214.595749	-105.269798	0	0	0.80114363	0.59847213
-129.535995	-213.953857	-105.269798	0	0	0.80114363	0.59847213
-130.844513	-213.295471	-105.269798	0	0	0.73739371	0.67546319
-132.144669	-212.620697	-105.269798	0	0	0.73739371	0.67546319
-133.436234	-211.929642	-105.269798	0	0	0.73739371	0.67546319
-134.719025	-211.222397	-105.269798	0	0	0.73739371	0.67546319
-135.992813	-210.499100	-105.269798	0	0	0.73739371	0.67546319
-137.257416	-209.759857	-105.269798	0	0	0.73739371	0.67546319
-138.512634	-209.004776	-105.269798	0	0	0.73739371	0.67546319
-139.758270	-208.233978	-105.269798	0	0	0.73739371	0.67546319
-140.994110	-207.447601	-105.269798	0	0	0.73739371	0.67546319
-142.219986	-206.645752	-105.269798	0	0	0.73739371	0.67546319
-143.435669	-205.828552	-105.269798	0	0	0.73739371	0.67546319
-144.640991	-204.996140	-105.269798	0	0	0.73739371	0.67546319
-145.835770	-204.148651	-105.269798	0	0	0.73739371	0.67546319
-146.201401	-203.884766	-105.269798	0	0	0.73739371	0.67546319
-146.474792	-203.881332	-104.879333	0	0	0.73739371	0.67546319
-146.868073	-203.872192	-104.317513	0	0	0.73739371	0.67546319
-147.262970	-203.858078	-103.753250	0	0	0.73739371	0.67546319
-147.659393	-203.838943	-103.186539	0	0	0.73739371	0.67546319
-148.057297	-203.814774	-102.617424	0	0	0.73739371	0.67546319
-148.456604	-203.785507	-102.045921	0	0	0.73739371	0.67546319
-148.857254	-203.751160	-101.472046	0	0	0.73739371	0.67546319
-149.259186	-203.711670	-100.895836	0	0	0.73739371	0.67546319
-149.662338	-203.667023	-100.317299	0	0	0.73739371	0.67546319
-150.066635	-203.617188	-99.736473	0	0	0.73739371	0.67546319
-150.472000	-203.562164	-99.153366	0	0	0.73739371	0.67546319
-150.878403	-203.501892	-98.568001	0	0	0.73739371	0.67546319
-151.285751	-203.436371	-97.980415	0	0	0.73739371	0.67546319
-151.693970	-203.365570	-97.390625	0	0	0.73739371	0.67546319
-152.103012	-203.289459	-96.798653	0	0	0.73739371	0.67546319
-152.512802	-203.208038	-96.204521	0	0	0.73739371	0.67546319
-152.923264	-203.121277	-95.608253	0	0	0.73739371	0.67546319
-153.334351	-203.029160	-95.009872	0	0	0.73739371	0.67546319
-153.745972	-202.931671	-94.409409	0	0	0.73739371	0.67546319
-154.158051	-202.828781	-93.806877	0	0	0.73739371	0.67546319
-154.570557	-202.720474	-93.202309	0	0	0.73739371	0.67546319
-154.983383	-202.606750	-92.595718	0	0	0.73739371	0.67546319
-155.396469	-202.487579	-91.987137	0	0	0.73739371	0.67546319
-155.809769	-202.362946	-91.376587	0	0	0.73739371	0.67546319
-156.223175	-202.232864	-90.764091	0	0	0.73739371	0.67546319
-156.636642	-202.097290	-90.149673	0	0	0.73739371	0.67546319
-157.050079	-201.956223	-89.533371	0	0	0.73739371	0.67546319
-157.463440	-201.809662	-88.915192	0	0	0.73739371	0.67546319
-157.876648	-201.657593	-88.295158	0	0	0.73739371	0.67546319
-158.289612	-201.500000	-87.673309	0	0	0.73739371	0.67546319
-158.702271	-201.336884	-87.049652	0	0	0.73739371	0.67546319
-159.114578	-201.168243	-86.424225	0	0	0.73739371	0.67546319
-159.526413	-200.994064	-85.797058	0	0	0.73739371	0.67546319
-159.937744	-200.814331	-85.168152	0	0	0.73739371	0.67546319
-160.348480	-200.629059	-84.537552	0	0	0.73739371	0.67546319
-160.758560	-200.438232	-83.905281	0	0	0.73739371	0.67546319
-161.167908	-200.241867	-83.271362	0	0	0.73739371	0.67546319
-161.576431	-200.039932	-82.635818	0	0	0.73739371	0.67546319
-161.984100	-199.832458	-81.998672	0	0	0.73739371	0.67546319
-162.390793	-199.619431	-81.359955	0	0	0.73739371	0.67546319
-162.796478	-199.400848	-80.719681	0	0	0.73739371	0.67546319
-163.201065	-199.176727	-80.077888	0	0	0.73739371	0.67546319
-163.604492	-198.947067	-79.434593	0	0	0.73739371	0.67546319
-164.006653	-198.711853	-78.789825	0	0	0.73739371	0.67546319
-164.407516	-198.471115	-78.143616	0	0	0.73739371	0.67546319
-164.806992	-198.224854	-77.495987	0	0	0.73739371	0.67546319
-165.205002	-197.973083	-76.846954	0	0	0.73739371	0.67546319
-165.601501	-197.715790	-76.196548	0	0	0.73739371	0.67546319
-165.996368	-197.452988	-75.544807	0	0	0.73739371	0.67546319
-166.389572	-197.184708	-74.891731	0	0	0.73739371	0.67546319
-166.781036	-196.910934	-74.237373	0	0	0.73739371	0.67546319
-167.170654	-196.631699	-73.581749	0	0	0.73739371	0.67546319
-167.558395	-196.347015	-72.924873	0	0	0.73739371	0.67546319
-167.944168	-196.056885	-72.266785	0	0	0.73739371	0.67546319
-168.327911	-195.761337	-71.607513	0	0	0.73739371	0.67546319
-168.709534	-195.460358	-70.947067	0	0	0.73739371	0.67546319
-169.088974	-195.154007	-70.285492	0	0	0.73739371	0.67546319
-169.466171	-194.842270	-69.622803	0	0	0.73739371	0.67546319
-169.841034	-194.525177	-68.959023	0	0	0.73739371	0.67546319
-170.213516	-194.202744	-68.294182	0	0	0.73739371	0.67546319
-170.583527	-193.874985	-67.628319	0	0	0.73739371	0.67546319
-170.950989	-193.541931	-66.961433	0	0	0.73739371	0.67546319
-171.315857	-193.203613	-66.293587	0	0	0.73739371	0.67546319
-171.678040	-192.860046	-65.624763	0	0	0.73739371	0.67546319
-172.037476	-192.511246	-64.955025	0	0	0.73739371	0.67546319
-172.394089	-192.157242	-64.284393	0	0	0.73739371	0.67546319
-172.747818	-191.798050	-63.612873	0	0	0.73739371	0.67546319
-173.098587	-191.433731	-62.940510	0	0	0.73739371	0.67546319
-173.446335	-191.064270	-62.267323	0	0	0.73739371	0.67546319
-173.790985	-190.689728	-61.593338	0	0	0.73739371	0.67546319
-174.132477	-190.310120	-60.918591	0	0	0.73739371	0.67546319
-174.470734	-189.925461	-60.243095	0	0	0.73739371	0.67546319
-174.805695	-189.535812	-59.566883	0	0	0.73739371	0.67546319
-175.137268	-189.141205	-58.889992	0	0	0.73739371	0.67546319
-175.465424	-188.741638	-58.212429	0	0	0.73739371	0.67546319
-175.790085	-188.337189	-57.534237	0	0	0.73739371	0.67546319
-176.111160	-187.927856	-56.855427	0	0	0.73739371	0.67546319
-176.428619	-187.513687	-56.176052	0	0	0.73739371	0.67546319
-176.742371	-187.094727	-55.496109	0	0	0.73739371	0.67546319
-177.052353	-186.671005	-54.815639	0	0	0.73739371	0.67546319
-177.358505	-186.242569	-54.134670	0	0	0.73739371	0.67546319
-177.660767	-185.809433	-53.453228	0	0	0.73739371	0.67546319
-177.959076	-185.371674	-52.771336	0	0	0.73739371	0.67546319
-178.253342	-184.929291	-52.089024	0	0	0.73739371	0.67546319
-178.543549	-184.482361	-51.406322	0	0	0.73739371	0.67546319
-178.829590	-184.030914	-50.723248	0	0	0.73739371	0.67546319
-179.111435	-183.574982	-50.039841	0	0	0.73739371	0.67546319
-179.388992	-183.114624	-49.356113	0	0	0.73739371	0.67546319
-179.662231	-182.649887	-48.672108	0	0	0.73739371	0.67546319
-179.931061	-182.180786	-47.987835	0	0	0.73739371	0.67546319
-180.195450	-181.707413	-47.303337	0	0	0.73739371	0.67546319
-180.455322	-181.229782	-46.618633	0	0	0.73739371	0.67546319
-180.710617	-180.747955	-45.933750	0	0	0.73739371	0.67546319
-180.961288	-180.261963	-45.248722	0	0	0.73739371	0.67546319
-181.207275	-179.771881	-44.563560	0	0	0.73739371	0.67546319
-181.448502	-179.277756	-43.878307	0	0	0.73739371	0.67546319
-181.684937	-178.779617	-43.192989	0	0	0.73739371	0.67546319
-181.916504	-178.277527	-42.507626	0	0	0.73739371	0.67546319
-182.143158	-177.771561	-41.822247	0	0	0.73739371	0.67546319
-182.364838	-177.261734	-41.136875	0	0	0.73739371	0.67546319
-182.581497	-176.748108	-40.451546	0	0	0.73739371	0.67546319
-182.793091	-176.230774	-39.766285	0	0	0.73739371	0.67546319
-182.999527	-175.709732	-39.081112	0	0	0.73739371	0.67546319
-183.200790	-175.185089	-38.396065	0	0	0.73739371	0.67546319
-183.396835	-174.656876	-37.711159	0	0	0.73739371	0.67546319
-183.587570	-174.125153	-37.026432	0	0	0.73739371	0.67546319
-183.772980	-173.589981	-36.341904	0	0	0.73739371	0.67546319
-183.952988	-173.051407	-35.657600	0	0	0.73739371	0.67546319
-184.127563	-172.509506	-34.973557	0	0	0.73739371	0.67546319
-184.296661	-171.964340	-34.289795	0	0	0.73739371	0.67546319
-184.460220	-171.415955	-33.606346	0	0	0.73739371	0.67546319
-184.618210	-170.864426	-32.923225	0	0	0.73739371	0.67546319
-184.770569	-170.309799	-32.240471	0	0	0.73739371	0.67546319
-184.917252	-169.752151	-31.558104	0	0	0.73739371	0.67546319
-185.058212	-169.191559	-30.876160	0	0	0.73739371	0.67546319
-185.193420	-168.628052	-30.194656	0	0	0.73739371	0.67546319
-185.322815	-168.061707	-29.513620	0	0	0.73739371	0.67546319
-185.446365	-167.492599	-28.833090	0	0	0.73739371	0.67546319
-185.564041	-166.920792	-28.153074	0	0	0.73739371	0.67546319
-185.675766	-166.346344	-27.473618	0	0	0.73739371	0.67546319
-185.781540	-165.769333	-26.794735	0	0	0.73739371	0.67546319
-185.881302	-165.189804	-26.116459	0	0	0.73739371	0.67546319
-185.975006	-164.607864	-25.438818	0	0	0.73739371	0.67546319
-186.062622	-164.023544	-24.761829	0	0	0.73739371	0.67546319
-186.144119	-163.436920	-24.085527	0	0	0.73739371	0.67546319
-186.219467	-162.848083	-23.409945	0	0	0.73739371	0.67546319
-186.288605	-162.257080	-22.735090	0	0	0.73739371	0.67546319
-186.351532	-161.664001	-22.061008	0	0	0.73739371	0.67546319
-186.408188	-161.068893	-21.387714	0	0	0.73739371	0.67546319
-186.458542	-160.471832	-20.715239	0	0	0.73739371	0.67546319
-186.502579	-159.872925	-20.043613	0	0	0.73739371	0.67546319
-186.540253	-159.272202	-19.372854	0	0	0.73739371	0.67546319
-186.571533	-158.669739	-18.702991	0	0	0.73739371	0.67546319
-186.596390	-158.065643	-18.034060	0	0	0.73739371	0.67546319
-186.614807	-157.459946	-17.366076	0	0	0.73739371	0.67546319
-186.626755	-156.852753	-16.699068	0	0	0.73739371	0.67546319
-186.632202	-156.244125	-16.033062	0	0	0.73739371	0.67546319
-186.631104	-155.634140	-15.368093	0	0	0.66627604	0.74570519
-186.623474	-155.022873	-14.704175	0	0	0.66627604	0.74570519
-186.609253	-154.410400	-14.041340	0	0	0.66627604	0.74570519
-186.588440	-153.796783	-13.379615	0	0	0.66627604	0.74570519
-186.786316	-152.899078	-12.972335	0	0	0.66627604	0.74570519
-187.340149	-151.531570	-12.981207	0	0	0.66627604	0.74570519
-187.876785	-150.157181	-12.990020	0	0	0.66627604	0.74570519
-188.396118	-148.776138	-12.998786	0	0	0.66627604	0.74570519
-188.898071	-147.388672	-13.007483	0	0	0.66627604	0.74570519
-189.382568	-145.994980	-13.016131	0	0	0.66627604	0.74570519
-189.849503	-144.595306	-13.024708	0	0	0.66627604	0.74570519
-190.298843	-143.189850	-13.033225	0	0	0.66627604	0.74570519
-190.730484	-141.778839	-13.041697	0	0	0.66627604	0.74570519
-191.144394	-140.362488	-13.050112	0	0	0.66627604	0.74570519
-191.540482	-138.941040	-13.058463	0	0	0.66627604	0.74570519
-191.918686	-137.514709	-13.066752	0	0	0.66627604	0.74570519
-192.278931	-136.083725	-13.074976	0	0	0.66627604	0.74570519
-192.621201	-134.648300	-13.083158	0	0	0.66627604	0.74570519
-192.945404	-133.208679	-13.091255	0	0	0.66627604	0.74570519
-193.251526	-131.765076	-13.099308	0	0	0.66627604	0.74570519
-193.539474	-130.317719	-13.107294	0	0	0.66627604	0.74570519
-193.809235	-128.866837	-13.115219	0	0	0.66627604	0.74570519
-194.060745	-127.412666	-13.123081	0	0	0.66627604	0.74570519
-194.293976	-125.955421	-13.130878	0	0	0.66627604	0.74570519
-194.508896	-124.495346	-13.138627	0	0	0.66627604	0.74570519
-194.705444	-123.032677	-13.146294	0	0	0.66627604	0.74570519
-194.883621	-121.567619	-13.153912	0	0	0.66627604	0.74570519
-195.043381	-120.100433	-13.161458	0	0	0.66627604	0.74570519
-195.184708	-118.631332	-13.168943	0	0	0.66627604	0.74570519
-195.307571	-117.160545	-13.176366	0	0	0.66627604	0.74570519
-195.411957	-115.688316	-13.183724	0	0	0.66627604	0.74570519
-195.497833	-114.214874	-13.191012	0	0	0.66627604	0.74570519
-195.565216	-112.740448	-13.198237	0	0	0.66627604	0.74570519
-195.614059	-111.265274	-13.205409	0	0	0.66627604	0.74570519
-195.644379	-109.789581	-13.212496	0	0	0.66627604	0.74570519
-195.656158	-108.313606	-13.219526	0	0	0.58850112	0.8084964
-195.649414	-106.837578	-13.226490	0	0	0.58850112	0.8084964
-195.624115	-105.361732	-13.233400	0	0	0.58850112	0.8084964
-195.580292	-103.886299	-13.240228	0	0	0.58850112	0.8084964
-195.517944	-102.411522	-13.246992	0	0	0.58850112	0.8084964
-195.437073	-100.937622	-13.253692	0	0	0.58850112	0.8084964
-195.337692	-99.464828	-13.260320	0	0	0.58850112	0.8084964
-195.219818	-97.993385	-13.266884	0	0	0.58850112	0.8084964
-195.083481	-96.523521	-13.273376	0	0	0.58850112	0.8084964
-194.928696	-95.055458	-13.279805	0	0	0.58850112	0.8084964
-194.755478	-93.589447	-13.286164	0	0	0.58850112	0.8084964
-194.563873	-92.125702	-13.292457	0	0	0.58850112	0.8084964
-194.353882	-90.664459	-13.298674	0	0	0.58850112	0.8084964
-194.125565	-89.205956	-13.304826	0	0	0.58850112	0.8084964
-193.878937	-87.750404	-13.310908	0	0	0.58850112	0.8084964
-193.614044	-86.298058	-13.316921	0	0	0.58850112	0.8084964
-193.330948	-84.849129	-13.322863	0	0	0.58850112	0.8084964
-193.029663	-83.403854	-13.328740	0	0	0.58850112	0.8084964
-192.710251	-81.962456	-13.334542	0	0	0.58850112	0.8084964
-192.372757	-80.525169	-13.340273	0	0	0.58850112	0.8084964
-192.017227	-79.092216	-13.345932	0	0	0.58850112	0.8084964
-191.643738	-77.663818	-13.351524	0	0	0.58850112	0.8084964
-191.252335	-76.240211	-13.357039	0	0	0.58850112	0.8084964
-190.843079	-74.821617	-13.362487	0	0	0.58850112	0.8084964
-190.416031	-73.408241	-13.367867	0	0	0.58850112	0.8084964
-189.971268	-72.000336	-13.373168	0	0	0.58850112	0.8084964
-189.508865	-70.598106	-13.378401	0	0	0.58850112	0.8084964
-189.028870	-69.201775	-13.383563	0	0	0.58850112	0.8084964
-188.531387	-67.811569	-13.388645	0	0	0.58850112	0.8084964
-188.016464	-66.427696	-13.393663	0	0	0.58850112	0.8084964
-187.484207	-65.050392	-13.398602	0	0	0.58850112	0.8084964
-186.934692	-63.679859	-13.403472	0	0	0.50484609	0.86320938
-186.367996	-62.316319	-13.408268	0	0	0.50484609	0.86320938
-185.784225	-60.959984	-13.412990	0	0	0.50484609	0.86320938
-185.183456	-59.611073	-13.417638	0	0	0.50484609	0.86320938
-184.565796	-58.269798	-13.422209	0	0	0.50484609	0.86320938
-183.931335	-56.936367	-13.426711	0	0	0.50484609	0.86320938
-183.280167	-55.610992	-13.431133	0	0	0.50484609	0.86320938
-182.612411	-54.293884	-13.435487	0	0	0.50484609	0.86320938
-181.928162	-52.985252	-13.439764	0	0	0.50484609	0.86320938
-181.227509	-51.685299	-13.443968	0	0	0.50484609	0.86320938
-180.510605	-50.394230	-13.448092	0	0	0.50484609	0.86320938
-179.777527	-49.112251	-13.452147	0	0	0.50484609	0.86320938
-179.028397	-47.839565	-13.456123	0	0	0.50484609	0.86320938
-178.263336	-46.576366	-13.460024	0	0	0.50484609	0.86320938
-177.482483	-45.322865	-13.463849	0	0	0.50484609	0.86320938
-176.685928	-44.079254	-13.467602	0	0	0.50484609	0.86320938
-175.873825	-42.845726	-13.471272	0	0	0.50484609	0.86320938
-175.046280	-41.622478	-13.474875	0	0	0.50484609	0.86320938
-174.203445	-40.409710	-13.478397	0	0	0.50484609	0.86320938
-173.345428	-39.207600	-13.481842	0	0	0.50484609	0.86320938
-172.472382	-38.016350	-13.485215	0	0	0.50484609	0.86320938
-171.584427	-36.836140	-13.488505	0	0	0.50484609	0.86320938
-170.681732	-35.667160	-13.491724	0	0	0.50484609	0.86320938
-169.764404	-34.509594	-13.494864	0	0	0.50484609	0.86320938
-168.832626	-33.363625	-13.497926	0	0	0.50484609	0.86320938
-167.886505	-32.229435	-13.500912	0	0	0.50484609	0.86320938
-166.926224	-31.107203	-13.503820	0	0	0.50484609	0.86320938
-165.951920	-29.997101	-13.506655	0	0	0.50484609	0.86320938
-164.963730	-28.899309	-13.509407	0	0	0.50484609	0.86320938
-163.961838	-27.814003	-13.512084	0	0	0.50484609	0.86320938
-162.946381	-26.741346	-13.514683	0	0	0.50484609	0.86320938
-161.917542	-25.681515	-13.517204	0	0	0.41614682	0.90929743
-160.875443	-24.634672	-13.519648	0	0	0.41614682	0.90929743
-159.820297	-23.600986	-13.522015	0	0	0.41614682	0.90929743
-158.752228	-22.580618	-13.524302	0	0	0.41614682	0.90929743
-157.671432	-21.573732	-13.526512	0	0	0.41614682	0.90929743
-156.578079	-20.580484	-13.528644	0	0	0.41614682	0.90929743
-155.472321	-19.601030	-13.530697	0	0	0.41614682	0.90929743
-154.354340	-18.635529	-13.532673	0	0	0.41614682	0.90929743
-153.224319	-17.684130	-13.534570	0	0	0.41614682	0.90929743
-152.082443	-16.746983	-13.536388	0	0	0.41614682	0.90929743
-150.928879	-15.824238	-13.538129	0	0	0.41614682	0.90929743
-149.763794	-14.916040	-13.539790	0	0	0.41614682	0.90929743
-148.587402	-14.022532	-13.541371	0	0	0.41614682	0.90929743
-147.399872	-13.143854	-13.542876	0	0	0.41614682	0.90929743
-146.201401	-12.280149	-13.544300	0	0	0.41614682	0.90929743
-144.992172	-11.431547	-13.545647	0	0	0.41614682	0.90929743
-143.772369	-10.598187	-13.546911	0	0	0.41614682	0.90929743
-142.542175	-9.780199	-13.548101	0	0	0.41614682	0.90929743
-141.301819	-8.977713	-13.549213	0	0	0.41614682	0.90929743
-140.051468	-8.190853	-13.550241	0	0	0.41614682	0.90929743
-138.791336	-7.419745	-13.551193	0	0	0.41614682	0.90929743
-137.521606	-6.664514	-13.552065	0	0	0.41614682	0.90929743
-136.242477	-5.925273	-13.552857	0	0	0.41614682	0.90929743
-134.954178	-5.202144	-13.553570	0	0	0.41614682	0.90929743
-140.965134	-4.035441	-13.554206	0	0	0.41614682	0.90929743
-183.861633	-0.238815	-13.554761	0	0	0.41614682	0.90929743
-268.643097	7.264484	-13.555238	0	0	0.41614682	0.90929743
125.925	-20.7403	-21.4123	0.0	0.0	-0.980066314247	0.198670631142	
